ply
format ascii 1.0
element vertex 869
property float x
property float y
property float z
end_header
0.011198915585847 0.074877161711517 0.073920983937952
0.015271012861280 0.074105178205238 0.074017994370856
0.018652045530773 0.073434720900588 0.073618722542541
0.021192097478555 0.073124405269286 0.072067128605144
-0.004266355711696 -0.075076314917395 0.076610907994535
-0.000904778493023 -0.075106265536861 0.077694806748714
0.002844528228704 -0.075087885441968 0.077036526516472
0.005740120144997 -0.075059974737924 0.076416629172650
-0.023900907684741 -0.071230273028403 0.077815374192775
-0.021056098863325 -0.072064775071946 0.078010606019495
-0.017158900941413 -0.073102222637676 0.077952130708584
-0.012855946127164 -0.073979403275866 0.077925062354751
-0.008976327893571 -0.074535008007612 0.077926815994480
-0.004997973489259 -0.074890434832011 0.078331681226689
-0.002526908783495 -0.074955230464425 0.079016325542642
0.003468247622599 -0.074936228160272 0.078684555399417
0.007093085245757 -0.074740873339736 0.078058820099293
0.011093264093329 -0.074260891336365 0.077988483811453
0.015063183738476 -0.073558354878671 0.077937404585654
0.019048444902704 -0.072644824711037 0.077968391056950
0.022913131813846 -0.071520975915804 0.077847651176617
-0.032550909293604 -0.067667046064736 0.077718505916272
-0.028967222162407 -0.069263246599631 0.077958912213966
-0.025895965728588 -0.070475968155432 0.077907138748711
0.024757674402324 -0.070876923834796 0.078641360645286
0.026833193674225 -0.070117868525091 0.077879353012347
0.031118362475911 -0.068331416822509 0.077868222129588
0.033499748014202 -0.067179602032641 0.077919035868286
-0.039963989070510 -0.063578231200293 0.078025282474750
-0.037079723801218 -0.065302325205365 0.077843380361052
-0.034366511391523 -0.066751013990285 0.078014359670843
0.035480910076189 -0.066191743516164 0.077962381539691
0.039057717207270 -0.064121042730302 0.078030304768447
0.041059890805208 -0.063044748942775 0.076696874072294
-0.044777386696660 -0.060272139358523 0.077774740853471
-0.041809171159570 -0.062383187060700 0.078023589240952
0.040877105899098 -0.062923513724733 0.079525391037026
0.042847465328259 -0.061659061687297 0.077843263058514
0.045769923632203 -0.059581853895261 0.077686578612976
-0.051062295269434 -0.055210063471620 0.076977390879200
-0.049284038200575 -0.056644711591318 0.077884863772791
-0.046798650506238 -0.058727028126263 0.078127028892646
0.047840115433574 -0.057848027784839 0.078033937702943
0.050147333905255 -0.055914314956690 0.077865803143941
-0.055128055721814 -0.051088898456578 0.077379536234372
-0.053084689174228 -0.053088812693507 0.078016740011484
0.052058339555405 -0.054132399844794 0.077874540548329
0.054080638866805 -0.052111809207880 0.077822779643558
-0.056771972852776 -0.049121076738565 0.077927392177010
0.056013620725070 -0.050015355572508 0.078059638875131
0.057802745441427 -0.047933996773295 0.077741169901971
-0.060293731336794 -0.044772195277020 0.077735761571446
-0.058799618604461 -0.046679841560206 0.078199714323900
0.059919559977680 -0.045248729713381 0.077803124794297
0.061333513033404 -0.043276018741837 0.077848699987798
-0.063548999908371 -0.040029987245965 0.077783740405377
-0.062292853009738 -0.041938862035282 0.078006836841063
0.062857435060904 -0.041091709478117 0.077923729836875
-0.065258534404976 -0.037132757545355 0.077857560270362
0.064571429253640 -0.038309300890247 0.077834000649960
0.065745240876006 -0.036297699186386 0.077919059905015
-0.067750923622186 -0.032370208851045 0.077808173523120
-0.066765319910123 -0.034347835792577 0.077851819722214
0.067399711547056 -0.033058981912314 0.077833520132640
-0.069235843655406 -0.029075841654396 0.077957286861847
0.068708832761683 -0.030328129270308 0.078249634089974
0.069537397174900 -0.028380520360607 0.077734148816951
-0.071253670784049 -0.023845145166530 0.077715241754307
-0.070523687409400 -0.025781416077110 0.078075302548898
0.070788996312324 -0.025075598063018 0.077936934334667
-0.071968199844196 -0.021323737906952 0.078010625578779
0.072060987046239 -0.021089692208794 0.077774984774611
-0.073144190952060 -0.016982266762253 0.077838970325787
0.072842899300721 -0.018204653621544 0.078163565702799
0.073312106528298 -0.016228804093261 0.077742691993793
-0.073997240242841 -0.012845877692972 0.077898556001298
0.073975831303261 -0.012894302391406 0.078061135161553
-0.074540517227286 -0.008945444487362 0.078032265144476
0.074556232116965 -0.008840962807255 0.077958327882786
-0.075066209861029 -0.004385478013613 0.076655642679531
-0.074893631394378 -0.005094050722486 0.078357389808904
0.074927363982774 -0.004987152436376 0.077916358016851
-0.075105102761996 -0.000805605568759 0.077818154286620
-0.074955375970060 -0.001852439039715 0.079554641625309
0.075093834111094 -0.000941162414176 0.077791768859444
-0.075078088066293 0.002709497529873 0.077238684311094
-0.074923143404263 0.003255779164514 0.078790528425798
0.075008022208962 0.003128262778022 0.077824315307600
-0.075039157336731 0.006035784275741 0.076427293826488
-0.074736538285786 0.007242983193861 0.077881057357685
0.074769417317876 0.006974236172439 0.078053122242794
-0.074273499436861 0.011111451446996 0.077807663862947
0.074255573341593 0.011122718431533 0.078147012918057
-0.073530232734474 0.015109293980578 0.077986293908935
0.073540414826726 0.015079778545103 0.077974950468420
-0.072651462639854 0.019008026559294 0.077763873336223
0.072522684641916 0.019400867885027 0.077982222464387
0.073081356806866 0.017661942902503 0.077137346349808
-0.071490633799595 0.022961625640907 0.077995540602960
-0.070907449308942 0.024753225881423 0.078300691913826
0.071405741566976 0.023245310633193 0.077882080257295
-0.070069570182101 0.026962049157795 0.077988307891815
0.070120061010642 0.026871021000703 0.077822849324102
-0.068447105599387 0.030890068750625 0.077927748605750
0.068342104785204 0.031098183316754 0.078091609717971
0.069124589458941 0.029427269384195 0.077718726786900
-0.067246893247843 0.033445919697156 0.077512516647858
-0.066156358358040 0.035536683307787 0.077828607806205
0.066458270241769 0.034950516943937 0.077824873139315
-0.064077916130325 0.039121392321175 0.077934475437494
-0.062911998140660 0.040905960463082 0.079417167357951
0.063994941035957 0.039257359202453 0.077984782853254
0.065236860669484 0.037362427576747 0.076999629653036
-0.063128881723752 0.041021340266293 0.076281537761233
-0.061587103396759 0.042937994251059 0.077792971321159
0.060564459564213 0.044355836832262 0.077949159067579
0.062034057576121 0.042319681880777 0.077864251370949
-0.059463366673465 0.045889161761653 0.077784616896263
-0.057877960621395 0.047838342623514 0.077792919364071
0.056845076737644 0.048945090783402 0.078495488643207
0.058618956116239 0.046935757909315 0.077786843633775
-0.055895407325933 0.050154901853392 0.078043076651266
-0.054068015736981 0.052085326035805 0.078214752960942
0.055052321693184 0.051055925048374 0.077939096773186
0.057058825982225 0.049090437656631 0.076140464461632
-0.052151762093958 0.054029158709026 0.077960075820897
-0.050037390521773 0.056003581587029 0.077949336070064
0.048846676956493 0.056928025315308 0.078538254878438
0.050946287940408 0.055146926509770 0.077767037988861
0.053120599371324 0.053097978884576 0.077403473685298
-0.047975755960518 0.057765528347507 0.077734636918321
-0.045441858831510 0.059785599646265 0.077817233089105
0.044361071922341 0.060569977592932 0.078055194528776
0.046861836538419 0.058678859940259 0.077884393540801
-0.043322498435253 0.061296943214356 0.077953815320558
-0.041011680040896 0.062896605689934 0.078028854123598
-0.038320849241604 0.064551951573498 0.078107054751081
0.039261348538781 0.064003175295163 0.078000507520279
0.042246334558360 0.062084962936922 0.078018775256346
-0.036183499436273 0.065829715441126 0.077919593759179
-0.033183198052207 0.067332401579436 0.077967182190855
-0.030235667962209 0.068760818368939 0.077898807171734
0.031432627999034 0.068189193714813 0.077886688749846
0.034975137862932 0.066451201006007 0.077884262791358
0.037367553279589 0.065138986978865 0.077830816408339
-0.028210624438363 0.069584576559043 0.077795723375205
-0.025067910853961 0.070783716888398 0.078025146209079
-0.021086788001857 0.072045438717002 0.078134673659371
-0.018288178842164 0.072845518431319 0.078265590067699
0.019256426386757 0.072587827198701 0.078067059978527
0.023033997039592 0.071467269078048 0.078031247050256
0.027050665652369 0.070027998225317 0.077863173135492
0.029456178454572 0.069164975888587 0.077113531358829
-0.016431207572116 0.073281069719497 0.077745690309995
-0.012919922777667 0.073988737772690 0.077896103544747
-0.008914312572004 0.074538292570566 0.077967154488956
-0.005138895276760 0.074929435772658 0.077809811682478
-0.000856307919831 0.075097399658643 0.077739601027733
0.003031417560186 0.075004467977429 0.078014808951603
0.006758133243677 0.074792618388476 0.077990850814306
0.010955231283248 0.074290902235282 0.077669001372049
0.015140630513215 0.073527728790820 0.077950929341571
0.017440234094134 0.073093363698308 0.077454950498748
-0.000018283947456 -0.075011309271653 0.081957668443016
0.001157713525543 -0.074993410526603 0.080576577947429
-0.023501232977343 -0.071186047907276 0.081815448916702
-0.020869772355431 -0.071968822261980 0.081939948333392
-0.017223996509380 -0.072946568393622 0.082051028101597
-0.013053208699566 -0.073819615270950 0.082028183488570
-0.008896795495891 -0.074423783702919 0.081883886041936
-0.005311075902440 -0.074772252282640 0.082029459847647
-0.001593830166872 -0.074942438713669 0.082297702470000
0.003192746290377 -0.074890927457685 0.082236925927689
0.006989511319760 -0.074659695872652 0.081881221889113
0.011010511395410 -0.074149744130739 0.081728518475537
0.014904859724446 -0.073436856453994 0.081973259294326
0.018907465650945 -0.072533306470101 0.081903952169675
0.022670889269878 -0.071434991952680 0.081785799849415
-0.032346770556986 -0.067612855704437 0.082106389426895
-0.028719696697780 -0.069244018223694 0.081975106078333
-0.025289338629378 -0.070567452453026 0.082203251298052
0.024572863740991 -0.070845857341929 0.081760915388443
0.027015617345282 -0.069903870288197 0.082144487917217
0.031081391461895 -0.068231391235854 0.081841649469539
0.033259983532589 -0.067175660315983 0.081885059481728
-0.039846612342705 -0.063484362306159 0.082087524271964
-0.036923410313064 -0.065222238749589 0.081819833216716
-0.034310346135766 -0.066637968003138 0.082023223328897
0.035426546242166 -0.066069115387025 0.081866716648182
0.038888429975525 -0.064055301206098 0.081994581710319
-0.044646799541695 -0.060228645333410 0.081924097946563
-0.041819438668061 -0.062223389635565 0.081939628412697
0.040860532604043 -0.062880114231732 0.082108171038058
0.042944332792588 -0.061420609792109 0.082111287106457
0.045705461287987 -0.059473341950877 0.081956551708136
-0.049065754412991 -0.056652923852317 0.081933106704850
-0.046602764259784 -0.058758145613265 0.082523182933309
0.047582627228703 -0.057939087684867 0.081905118337181
0.050076715518073 -0.055799449580431 0.081840021203661
-0.052933811439900 -0.053038183551652 0.081968460475629
0.051924557063754 -0.054047339292311 0.081967243740188
0.054027870488959 -0.051944219868596 0.082139480184106
-0.056492638002501 -0.049264611661295 0.081772201508689
-0.054982488388892 -0.050986532235748 0.082643523456039
0.055914810875006 -0.049926061649580 0.081921756140104
0.057731773669783 -0.047807333535013 0.081853146759847
-0.060349863700421 -0.044457232189531 0.082188595319054
-0.058702514493493 -0.046668952660754 0.082293094046357
0.059841344615575 -0.045146874437810 0.082169025472097
0.061231007125409 -0.043211378963618 0.081754483746591
-0.063478982185606 -0.039888450572538 0.081923907931825
-0.062280724157909 -0.041723280585297 0.081974772992195
0.062767739109710 -0.040970357730268 0.082038671633046
-0.065251551746423 -0.036933788728664 0.081846730052110
0.064448998518903 -0.038242461316464 0.082416769199719
0.065634258759003 -0.036278661241867 0.081959275220225
-0.067707019534187 -0.032126174610627 0.082194984380049
-0.066618586862701 -0.034403519480744 0.081882069566963
0.067386922952205 -0.032825450948964 0.082028461547262
-0.069070762582561 -0.029098257683631 0.081918218174584
0.068626520966678 -0.030216683630704 0.081790922163848
0.069441428928084 -0.028178408379309 0.081936699119215
-0.071192161801089 -0.023517079350494 0.081824183888011
-0.070529053463533 -0.025388738204681 0.081873972345195
0.070689313172097 -0.024928740794408 0.081846541704939
-0.071972162521561 -0.020953134539730 0.081950522763466
0.071966304681891 -0.020913425265643 0.082260932524413
-0.073052061094817 -0.016808430213324 0.082149001684167
0.072825820184843 -0.017919228902658 0.081964888373061
0.073278455388448 -0.015771780031784 0.082054862543425
-0.073843640664894 -0.012882064007402 0.081958362355322
0.073875198986476 -0.012742428354934 0.081899829309662
-0.074361871786422 -0.009223575535006 0.081969776610378
0.074400780400279 -0.008920624143919 0.081954153123251
-0.074784124603879 -0.005023904573518 0.081904464261906
0.074780229660719 -0.005106607611860 0.082018179191929
-0.074991050922183 -0.000020725977523 0.081434369834377
-0.074937807264548 -0.001126354341593 0.081817482014035
0.074969896820307 -0.001039883599065 0.082011694642968
-0.074887597384054 0.002780860963327 0.082260998857267
0.074882618171509 0.003133960212745 0.081913966188457
-0.074654810871152 0.006955997834492 0.081932374775398
0.074619034084367 0.007038026219387 0.081763383780908
-0.074111257693714 0.011213551019004 0.082009276462509
0.074132151228125 0.011019622199887 0.082039708221048
-0.073469196700214 0.014840256213785 0.082075611364589
0.072990484592712 0.016905826017059 0.083546487229655
0.073409898767276 0.015015594844047 0.082087660962663
-0.072448397407510 0.019286000804573 0.082006480219352
0.072425586478554 0.019312644481197 0.081944454064615
-0.071433668831468 0.022663340324637 0.081985006021173
-0.070873878283868 0.024480577168205 0.081319223812491
0.071218109317109 0.023374328300303 0.081855685714725
-0.069844066157532 0.027105652501846 0.081967622567157
0.069963732093185 0.026811429375186 0.081876930376834
-0.068281567373412 0.030904342930289 0.081722318131466
0.068276494781461 0.030897215245456 0.082097596284708
0.069057234709522 0.029125402079478 0.082702858107583
-0.067138829975135 0.033310660319734 0.081348672205609
-0.066087872508107 0.035378601339645 0.082031815357936
0.066298504843283 0.034966661980525 0.081900477975782
-0.063995414359413 0.038968210120174 0.082159598056591
-0.062903749773527 0.040799702302967 0.082014820147086
0.063903681269774 0.039175180181847 0.082024184806163
0.065067649532444 0.037242741812918 0.081622667557664
-0.061515815821301 0.042783124568145 0.082019109238112
0.060502844499990 0.044200988332301 0.082503054954231
0.061989410005866 0.042124530300283 0.082114930142311
-0.059459610406152 0.045687325198388 0.082062701443441
-0.057856339523213 0.047623856812738 0.082204562238873
0.056869371840871 0.048792862359096 0.082307128179444
0.058446016436289 0.046916800873596 0.082150574892044
-0.055641898090686 0.050224766267031 0.081853833056749
-0.053940284069416 0.052018943496530 0.081756327650992
0.053007870613413 0.052969689736795 0.081584261562976
0.054977946736926 0.050929498294056 0.081850551374678
-0.051910940638520 0.054045764865046 0.081933084296015
-0.049889906804530 0.055948417084637 0.081718261625745
0.048788241185864 0.056898261242612 0.081549770079054
0.051138578588105 0.054791297150648 0.082021142767812
-0.047835097279406 0.057700149160729 0.082001779903023
-0.045153132989188 0.059821754589661 0.082022813694846
0.044276566231834 0.060446935182926 0.081830170228297
0.046728568571395 0.058600322939894 0.081761606152705
-0.043239053392714 0.061196593558787 0.081563265171473
-0.040819403408048 0.062841739784612 0.081981158982350
-0.038187895676515 0.064455793414259 0.082027093482283
0.039128215182994 0.063896785296403 0.081924117729844
0.042133208701471 0.061979088898449 0.081853060173035
-0.036027987667409 0.065732361690099 0.082099865247643
-0.033113283176466 0.067224943152064 0.082036419911840
-0.030068442734903 0.068693570373038 0.082167912732238
0.031165598184991 0.068167012248069 0.082091336455914
0.035071278991575 0.066229802294868 0.081879280150919
0.037150578531681 0.065079841561659 0.081584592039683
-0.028120552904441 0.069460528696944 0.082020827936756
-0.024921698260285 0.070678277834001 0.082204535766447
-0.021106100175142 0.071885509638165 0.082190433615471
-0.017949204683143 0.072785764738223 0.081715928070868
0.016930004722314 0.073003077621959 0.082436806288329
0.018971396929797 0.072515116095779 0.081863196489687
0.023016940673911 0.071319739844755 0.081850996947130
0.026929454003709 0.069919866081557 0.082062527890131
0.029111363452139 0.069097451497926 0.080957984974679
-0.016045171776671 0.073187851294376 0.081896787818360
-0.013131492813675 0.073789826012158 0.081794343749477
-0.009249852505561 0.074380414484207 0.081875315721911
-0.004771342891144 0.074800501876621 0.082128788370925
-0.001123198920302 0.074944608964093 0.082151914375096
0.003132294899156 0.074861211821077 0.081992158625609
0.006983012170695 0.074619134936890 0.081992223727739
0.010498011586662 0.074198692178801 0.082272152315761
0.015080320565117 0.073395373931974 0.082302545511397
-0.000000309308120 -0.074992127716541 0.084765583276749
-0.023368447109957 -0.071125661029537 0.085295020025352
-0.020896591178377 -0.071730556726232 0.085457559320020
-0.016990439091328 -0.072743564781992 0.085479137274580
-0.013000318677423 -0.073573310108955 0.085467039249997
-0.008974273532757 -0.074168910129740 0.085464947488763
-0.005024441596546 -0.074544154495144 0.085466715651931
-0.000917104310369 -0.074707693814147 0.085475231324036
0.003020814505080 -0.074649003993091 0.085470471348152
0.007045082424596 -0.074378148215279 0.085468087856891
0.011129737680942 -0.073874977042412 0.085446241795951
0.015078422508251 -0.073173421206346 0.085474905140668
0.018985013148919 -0.072263511010417 0.085463652516582
0.022222642130291 -0.071369620178411 0.085448330891650
-0.032098488775717 -0.067504424639106 0.085468699899364
-0.029002469374686 -0.068848094489841 0.085469056376788
-0.025131049071039 -0.070345942032051 0.085486100134469
-0.022769237726239 -0.070921373203857 0.085591642663528
0.024126347990732 -0.070680494775244 0.085471866582739
0.027018326793629 -0.069654731613241 0.085480033113591
0.030926553594064 -0.068016306481656 0.085473696512794
0.033212754466893 -0.067082856606451 0.085428643869066
-0.039612510095235 -0.063388277981741 0.085430670763562
-0.037004393234543 -0.064906081507051 0.085469003137252
-0.033993720175329 -0.066475140511466 0.085465165915945
0.032813343592096 -0.066882369489400 0.085592673850830
0.035140078980246 -0.065914007188064 0.085457878060509
0.038600783503505 -0.063976240177260 0.085444247711468
-0.044431072202264 -0.060081410472257 0.085467123125037
-0.041553439879899 -0.062068632751156 0.085473367515192
0.040517918516549 -0.062691614968345 0.085490592024875
0.042995208727127 -0.061082807410919 0.085450379301005
0.045515444272455 -0.059346646484697 0.085450476701111
-0.048843182280714 -0.056543907710330 0.085447273028790
-0.046386270193035 -0.058529573719236 0.085509993323645
0.047473146022667 -0.057679826489216 0.085497905526101
0.049860495147476 -0.055676120899766 0.085428232266845
-0.052761917509397 -0.052897620014144 0.085478289117258
-0.050668347995037 -0.054774112993673 0.085559417460570
0.051816256748821 -0.053822145817192 0.085479355673106
0.053844823742924 -0.051825791037238 0.085495037136554
-0.056528527153714 -0.048858956203348 0.085461436084496
-0.054730610237274 -0.050721744441494 0.085540306117731
0.055833661795807 -0.049627423530788 0.085492479431095
0.057576107475701 -0.047653664666224 0.085459050894867
-0.060043499723392 -0.044505612164950 0.085449013040623
-0.058504950743845 -0.046393477867708 0.085505502745041
0.059543089462830 -0.045126142770127 0.085470107633804
0.061140575810976 -0.043193605933975 0.085486045015225
-0.063359602675619 -0.039691910829343 0.085400523914467
-0.062044527542946 -0.041578538055780 0.085472197601989
0.060924153752487 -0.042822706903099 0.085587421026125
0.062529475887386 -0.040897024223499 0.085467312174582
-0.064879137877227 -0.037017415092579 0.085468295353543
0.064367305833325 -0.037855636564995 0.085532035671077
0.065545613931300 -0.035927397378733 0.085407286601437
-0.067520324785472 -0.032071351669685 0.085452255052140
-0.066502212164963 -0.033990399506863 0.085445909138951
0.066995284302547 -0.033043843376109 0.085471080135746
-0.068870919714931 -0.028937778831877 0.085471365860247
0.068491923312269 -0.029782900872574 0.085474223451158
0.069381130188528 -0.027873761616575 0.085447662237228
-0.071105791954379 -0.023395420665218 0.085352964870005
-0.070341848706204 -0.025104801977368 0.085487755321468
0.070426179462612 -0.024910086605623 0.085471027045090
-0.071720170051870 -0.020932946825610 0.085469119529370
-0.070942090545318 -0.022820401620170 0.085575292413756
0.071704141228032 -0.020983509100960 0.085476053568062
-0.072749566185293 -0.017012419070952 0.085481618107341
0.072633281180870 -0.017324587584176 0.085491993152470
0.073173090073116 -0.015748608257887 0.085453363426611
-0.073569150969897 -0.012957192826962 0.085462455871290
0.072987600284479 -0.014766655426164 0.085548186893413
0.073596430351286 -0.012872296637880 0.085486252669036
-0.074169299412705 -0.008982826381576 0.085463635142570
0.074153782998630 -0.009056573180540 0.085470960917989
-0.074537455600706 -0.005006022572305 0.085502441115058
0.074552506691530 -0.004969594782476 0.085439507425343
-0.074990626185419 0.000004116407599 0.084545439478868
-0.074686792195086 -0.001148469738726 0.085493686011339
0.074688554823687 -0.000986890731928 0.085477448594880
-0.074656249832356 0.003038614525504 0.085458577831904
0.074645963749805 0.002982517981765 0.085490659726104
-0.074384493837097 0.007061294418813 0.085491666505882
0.074380933911905 0.007047831579611 0.085458036626249
-0.073895573451680 0.010925687230423 0.085484095367038
0.073882037825961 0.011036230956710 0.085485514093311
-0.073186367278290 0.014986514592226 0.085502658976210
0.072837572188749 0.016253462226287 0.085504440442767
0.073351030856127 0.014510595508662 0.085511827454010
-0.072245874809928 0.019035676988481 0.085473949799845
0.072251048846068 0.019021388104933 0.085476701831295
-0.071399033909560 0.022153370367815 0.085478039047473
-0.070683105639155 0.024064253601502 0.085465171306363
0.071104254399201 0.022951905703332 0.085528560940116
-0.069689993264617 0.026970907223228 0.085476271791576
0.068844567966840 0.028619587574303 0.085586633224403
0.069767962922256 0.026820086430485 0.085456611516829
-0.067996877904332 0.031011431273950 0.085425641631954
-0.066892709904972 0.032849157243003 0.085576247572074
0.067932578881866 0.031083835866991 0.085509663497245
0.069049305444010 0.029092166555591 0.085522772678055
-0.067100463317490 0.033203592778193 0.085493483795360
-0.065975147858007 0.035042542293902 0.085433841694283
0.064861355404405 0.036740936437579 0.085597371608163
0.066066439518174 0.034857661673670 0.085487788987807
-0.063983958060647 0.038602726253573 0.085446997584833
-0.062672278251156 0.040537688899300 0.085514154772086
0.063645203698926 0.039109969151095 0.085470249387160
0.065073637980845 0.037100245159688 0.085883776698172
-0.061031606834392 0.043057894456319 0.085483830983431
0.060297203708271 0.044067128507666 0.085463690820654
0.061719609205595 0.042148675105296 0.085439390285857
-0.059343233908377 0.045483153847690 0.085446324731744
-0.057662745794293 0.047463087302376 0.085508795691821
0.056676636330717 0.048584068877067 0.085529887445699
0.058279860428233 0.046758880812570 0.085504005820026
-0.055682195183367 0.049813746092699 0.085493986120454
-0.053800232401892 0.051806953053886 0.085502033756162
0.052747959067986 0.052782639281079 0.085561700003857
0.054692146088822 0.050909560873337 0.085482793562330
-0.051824478933249 0.053818801452816 0.085493151572644
-0.049620667245339 0.055819134331562 0.085501151721843
0.048665813776423 0.056654492082481 0.085503519136098
0.050851283091897 0.054731355322609 0.085494750635325
-0.047659834013849 0.057568386650506 0.085522320268992
-0.045137115585689 0.059523525432096 0.085501836977713
-0.042855354820954 0.060935803516156 0.085537294402246
0.044036250060728 0.060338698399730 0.085507819049936
0.046616380876223 0.058376640685148 0.085502045320146
-0.043205885313832 0.061159672101444 0.085519892938006
-0.040956203756593 0.062472142869180 0.085492255695920
-0.037824526462618 0.064394431943079 0.085526445541218
0.036719378162961 0.064843378701751 0.085572333302511
0.039034008536130 0.063688952313021 0.085517492619403
0.042089374364774 0.061746866881946 0.085485692956910
-0.035896948942509 0.065538275743147 0.085459207109735
-0.033043617015581 0.067010922330254 0.085464784858831
-0.029834085980174 0.068470279987842 0.085468541784180
0.028616490210232 0.068861402992963 0.085539780470504
0.030993026774597 0.067970076511480 0.085499935069652
0.034838076650805 0.066099498249715 0.085463805571912
0.037093670360681 0.065071380013718 0.085418932524031
-0.027859579517433 0.069388511482539 0.085503092146386
-0.025016878037144 0.070405490059236 0.085484780274519
-0.021024048934850 0.071703643096068 0.085488711249586
-0.017401586744966 0.072631431726450 0.085494988099335
-0.014908525224662 0.072996944139021 0.085626764475960
0.016210139262393 0.072840934629137 0.085481619463372
0.018983103569330 0.072253267137379 0.085427456897916
0.022922307179139 0.071125160075671 0.085456012005909
0.026850636774932 0.069750511099791 0.085462514301059
0.029082223276883 0.069047500249304 0.085452090652709
-0.015645174645968 0.073197251308888 0.085388253236013
-0.012973289986286 0.073576688959096 0.085444291504769
-0.008959024941296 0.074183089951906 0.085491537608331
-0.004933610038683 0.074541373124183 0.085483806773541
-0.000927766513797 0.074724440230650 0.085586807964881
0.003060959073353 0.074652717674738 0.085516124629778
0.007024992670873 0.074374844858182 0.085490090561197
0.011001715105737 0.073899109322260 0.085503083134792
0.014693575139110 0.073301555464109 0.085488596888187
-0.023499397191500 -0.071156696545984 0.089392123420204
-0.021034950895515 -0.071930386238802 0.090013110510965
-0.016905096788713 -0.073012823670814 0.090111652653281
-0.013025454080799 -0.073790253328955 0.089878516935315
-0.008758940968516 -0.074434484967496 0.089919721290908
-0.004913265184909 -0.074779428872992 0.089906656159893
-0.001109873213983 -0.074925552981745 0.089987912989176
0.002877894356354 -0.074896217161368 0.090090609238546
0.007095328981502 -0.074604249706688 0.090008839477099
0.011082363707734 -0.074112417105847 0.090076876173879
0.014971189406283 -0.073438778196379 0.090051399905760
0.019117476702889 -0.072458952209851 0.089877441893082
0.022262743125286 -0.071571929283712 0.089954797069861
-0.032112451152658 -0.067724118276345 0.090026326103303
-0.028805372142455 -0.069191249097514 0.089902188639952
-0.025421199177657 -0.070488424496781 0.090022248310138
0.024616775307438 -0.070774873334727 0.090658125649852
0.027061393542830 -0.069895437664176 0.090042915030693
0.030972685179056 -0.068234903206798 0.089840858603988
0.033431179490855 -0.067089747354640 0.090100579379640
-0.039685235969911 -0.063578705016453 0.090050267831967
-0.037063729343095 -0.065128898544530 0.090186083425506
-0.034231452399722 -0.066681418552406 0.090405205096456
0.035145472926957 -0.066170004130183 0.089937939194833
0.038958406143286 -0.064016993993821 0.090234435410462
-0.044421000116216 -0.060368768770976 0.089915754349020
-0.041782106017861 -0.062196957926477 0.090192050286320
0.040752841775907 -0.062871502850998 0.090166132538007
0.043133176489915 -0.061283803569660 0.090241965067468
0.045537757386287 -0.059506659519733 0.090399981123215
-0.048948676320768 -0.056738463764435 0.090052970414261
-0.046525327322917 -0.058732509042656 0.090431061377011
0.047701028293045 -0.057825428951829 0.090196203928863
0.049922759368827 -0.055883162775277 0.089786825755007
-0.052943543114943 -0.053025745634288 0.089861439629809
-0.050945145481332 -0.054938564071278 0.090825839892396
0.051907600327940 -0.054071254965000 0.090080371354244
0.054017368001463 -0.051947425370445 0.090145318738126
-0.056683615803803 -0.049013655619474 0.089983522682715
-0.054939645770064 -0.050950827638834 0.090355710386810
0.055782015677827 -0.050046189427488 0.090107278572314
0.057624810559529 -0.047941973029565 0.090035267750348
-0.060339757396925 -0.044445495532177 0.089857382873254
-0.058717291747573 -0.046544355751029 0.090422576846908
0.059756630155982 -0.045225664381758 0.089927236212328
0.061213499875374 -0.043283339087895 0.090043433928361
-0.063472062176250 -0.039827828492442 0.089781023528556
-0.062248272989617 -0.041717922719014 0.089855548057263
0.062789655892564 -0.040887481798824 0.089901924813052
-0.065067723317259 -0.037183997193697 0.090088005854807
0.064466350531561 -0.038263095386462 0.089772303633150
0.065554766522461 -0.036281409545600 0.089542310424576
-0.067637268741981 -0.032310810999280 0.090101631486289
-0.066579862900662 -0.034384849868069 0.089807509859916
0.067238873130750 -0.033092330786567 0.090034747315313
-0.069015537174302 -0.029174434074596 0.090050102842138
0.068625183941454 -0.030077631640652 0.090114513841949
0.069587459299109 -0.027898255738542 0.089904934182315
-0.071145986026311 -0.023504305924381 0.089949717201655
-0.070454215162574 -0.025545663790231 0.090179668078614
0.070650050851622 -0.024964679386408 0.089933947690101
-0.071968410425469 -0.020928322060661 0.089726708438946
0.071893527948954 -0.021198109539507 0.090093364227897
-0.073003406100070 -0.016902677717046 0.089981557959178
0.072795412221623 -0.017785415477057 0.089780057439227
0.073180747903031 -0.016276173857343 0.090221501322254
-0.073792230059260 -0.013017493714429 0.089985807507247
0.073813872782808 -0.012893693238448 0.090139474248668
-0.074371032297055 -0.009256354444181 0.089812624763924
0.074404171368428 -0.009033465288377 0.090194593574022
-0.074744378583318 -0.005265321245713 0.089927456114103
0.074778569669628 -0.004989952458692 0.089969472562166
-0.074924259978708 -0.000841842120481 0.090232943576910
0.074926799359875 -0.000851632396075 0.090010739059608
-0.074898188512270 0.002739209129786 0.089908998190626
0.074887589290580 0.002988382383063 0.089774712084236
-0.074633789718477 0.006610255722854 0.089985425492569
0.074608607761116 0.006977810339751 0.089685877564291
-0.074130546333756 0.010981061699994 0.090127436722345
0.074127920614926 0.010975580534931 0.090125188591771
-0.073467307001275 0.014807347362103 0.090232462476403
0.072994920864106 0.016948660418230 0.089397825209550
0.073455838040435 0.014921751366233 0.089847449234956
-0.072511962485736 0.018870017292557 0.089821400575478
0.072461270922006 0.019092892652152 0.089862486678433
-0.071540336362587 0.022367010242145 0.089912913681157
-0.070838893557523 0.024405930927681 0.089364907494149
0.071282173034428 0.023106241916402 0.090248738823550
-0.070000244347441 0.026748962209338 0.089798893376126
0.069894077760834 0.027067460276985 0.090061646522219
-0.068246153306675 0.030916811132978 0.090056350068442
0.068148212604446 0.031176014527943 0.090149207122549
0.069086600504099 0.029021382546791 0.091949065708667
-0.067140460489840 0.033368911229874 0.090549023608726
-0.066054589653979 0.035365973775396 0.089610285584754
0.066113809171940 0.035254263658880 0.089836008068546
-0.064147179472382 0.038752469564538 0.089758100143455
-0.062867479116535 0.040764396866785 0.090004169502726
0.063849008100904 0.039235466262123 0.090007180576332
0.065116501281525 0.037118508941198 0.089814910418736
-0.061356284327565 0.043018968636374 0.089624499785429
0.060490821963896 0.044261937642985 0.090092171229817
0.061884546957950 0.042282352123092 0.090180317451395
-0.059404849129959 0.045664044396089 0.090150679044215
-0.057882704097940 0.047598934696747 0.089986058616838
0.056839512625276 0.048875912524457 0.090161367557443
0.058564832840891 0.046754341290667 0.090030661381561
-0.055905937959818 0.049901858205113 0.089717176057327
-0.054014398335763 0.051940648587020 0.089817811711690
0.055026434319306 0.050862474817504 0.090043599954928
-0.052086488240590 0.053895167399359 0.089519297213462
-0.049974032774901 0.055831158820587 0.090138064996231
0.048997013021137 0.056755238144533 0.090020336481231
0.051046412102405 0.054852916621892 0.090100048987556
-0.048039904666930 0.057559311776885 0.090304526067705
-0.045232415038369 0.059742214816095 0.090202975640784
0.044440090794992 0.060374789911555 0.090444007994513
0.046841096904979 0.058490215067454 0.090061084131822
-0.043340601911381 0.061194833011320 0.090254282122201
-0.041030341483377 0.062697745133847 0.089872883352638
-0.038131468715470 0.064542967544156 0.089925593795832
0.038929294869253 0.064041992930136 0.090081848213742
0.042331116457444 0.061842041785772 0.090037190072203
-0.035860636616006 0.065786533584411 0.089942544071771
-0.033076237731334 0.067251475043712 0.090026857838140
-0.030240989872619 0.068552939455822 0.090158933945935
0.031257768716613 0.068104438310842 0.090139882173937
0.035067758212261 0.066224827535709 0.090304094240451
0.037174085806174 0.065073966835026 0.090847242745654
-0.027913425887514 0.069563374682311 0.090360950473290
-0.024847855362885 0.070693442036987 0.090124466375359
-0.021202729854728 0.071890018900401 0.090216736422057
-0.017812562856527 0.072783837625369 0.089978163028831
0.016949078909374 0.073011621422800 0.089478709132779
0.019069960292363 0.072464707941037 0.089688773607547
0.022670340228282 0.071439570178379 0.090046301691343
0.027303875415047 0.069798918365311 0.089902947560742
0.029103502678724 0.069061106645759 0.089941330802243
-0.015849044679182 0.073270438952127 0.090011457055304
-0.012659816417077 0.073853331672073 0.090048234637018
-0.008856461283654 0.074428712469937 0.089851452602869
-0.004871475380755 0.074773886282258 0.089875289246213
-0.000929629346594 0.074954571618443 0.090112434523087
0.002911577159828 0.074892105716659 0.089974134505212
0.007087983548126 0.074595918305438 0.090021404932004
0.011608186296412 0.074033471194821 0.090280106113649
0.015022214820061 0.073435531562895 0.089879415463024
-0.023608780752239 -0.071115178196932 0.093635686551570
-0.020864280351176 -0.071974123245010 0.093915808778635
-0.016860275424646 -0.073019757633464 0.093995268864913
-0.012845401358088 -0.073819170232552 0.094224309556562
-0.009425304319715 -0.074361136066771 0.094097576220630
-0.004789647562485 -0.074783453050961 0.094087088184669
-0.000982101533382 -0.074922224608806 0.094026262941487
0.003056730845667 -0.074887487972982 0.094009648125004
0.007064840851559 -0.074606991556046 0.093674253129814
0.011070038371883 -0.074114750447133 0.093772990259082
0.014815301772965 -0.073471421389798 0.093970981769132
0.018715252773558 -0.072559093299322 0.094050654387309
0.022457147669647 -0.071506288991208 0.094040516826591
-0.032187151012482 -0.067687860897087 0.093947546767857
-0.028796234991830 -0.069193906500091 0.094078785878459
-0.025514136624977 -0.070455147822547 0.094285751746771
0.024548611401249 -0.070798336941505 0.094167198170934
0.026975031031293 -0.069939147434008 0.093893365306400
0.031025095715965 -0.068217446337742 0.094357633723612
0.033314625822166 -0.067156685671168 0.094360205719786
-0.039522103148496 -0.063679926423045 0.093984514380996
-0.037165556669496 -0.065068082394115 0.093836434996717
-0.034257825579476 -0.066665221626689 0.094428535577905
0.035394556965968 -0.066041661942512 0.094251435278684
0.038500347832006 -0.064305325039354 0.093803006656146
-0.044926979433108 -0.059972914092446 0.093782912744030
-0.041898834268318 -0.062115325205202 0.093922297916550
0.040690085490480 -0.062916560338345 0.094539721518858
0.042820569642658 -0.061508523891861 0.093692786085693
0.045655214031836 -0.059416436286137 0.094276599381905
-0.049179206107194 -0.056530759467097 0.093754708915406
-0.046615078810879 -0.058656818443702 0.094212178074811
0.047596872852443 -0.057903293458007 0.094111679167802
0.050017505367952 -0.055797098364626 0.094036478908532
-0.053115223829125 -0.052850084689358 0.094189594882635
-0.050927172678080 -0.054949749446657 0.093776028782258
0.051904679366447 -0.054071320584184 0.094126531636855
0.053937503751299 -0.052033284795383 0.094281968039234
-0.056769099828262 -0.048906808522400 0.093961588575623
0.056103068157836 -0.049701183817715 0.094016737745699
0.057688293549958 -0.047862089074788 0.094173002412357
-0.060160296769974 -0.044672143433817 0.093951130363194
-0.058667825716652 -0.046605980076106 0.093616250049498
0.059731951151741 -0.045258523803238 0.093949897933601
0.061156734484795 -0.043369973612618 0.093575565375592
-0.063451840591742 -0.039850333495038 0.093546975687834
-0.062199516066073 -0.041784259965039 0.093971938284451
0.062614830721583 -0.041157802390912 0.094068728525415
-0.065230824467275 -0.036875803810819 0.093960150189248
0.064592535382395 -0.038045823410307 0.094025632170359
0.065534674359606 -0.036327482492176 0.093874735555825
-0.067583400536462 -0.032416630655256 0.094161582742793
-0.066638120483242 -0.034264777999402 0.093677285361654
0.067312218808029 -0.032948310777574 0.093906035905008
-0.069154810641295 -0.028843609417486 0.093858164744619
0.068622532078134 -0.030087593116703 0.093699935395145
0.069495637935331 -0.028111448659777 0.093894982420375
-0.071168707416027 -0.023426097407294 0.093462860209800
-0.070436184021423 -0.025584833517134 0.093961234687147
0.070650792013982 -0.024963604023565 0.093963995313526
-0.071939839048510 -0.021001860913613 0.094083877816999
0.072047889259348 -0.020651889205715 0.094092893586577
-0.073081399218957 -0.016564379823492 0.094227486736283
0.072696114866225 -0.018173178692927 0.094355067301003
0.073273668964610 -0.015877859812506 0.094022047148359
-0.073777149376146 -0.013086992859113 0.093894959995209
0.073731493989645 -0.013376806945669 0.093842126906760
-0.074427657225973 -0.008826259408865 0.093911649878042
0.074402694531030 -0.009086323700764 0.094182742228384
-0.074755820328083 -0.005079597243917 0.093933664303235
0.074794903111021 -0.004809069591824 0.094118727237244
-0.074922855434665 -0.000924063752391 0.094068691810993
0.074927245034113 -0.001025611535029 0.093945459807824
-0.074883108963378 0.003083641630771 0.094055603817960
0.074885705686978 0.003178542478097 0.093791069066711
-0.074604192732639 0.006931753243468 0.093884599750413
0.074628742884875 0.006766792780140 0.094155356141919
-0.074150156136918 0.010851076970514 0.093878578604839
0.074101223473427 0.011145837632734 0.094066524064714
-0.073427612332324 0.015038542015439 0.094124449599071
0.073003149402913 0.016895386264198 0.094569898005854
0.073392760612229 0.015159809368919 0.093859149004238
-0.072441771003890 0.019153269978669 0.093721651030876
0.072387214577577 0.019376101268609 0.094150026174843
-0.071511376008416 0.022463557775776 0.093815175238705
-0.070799508476811 0.024520316818060 0.093649406173628
0.071363059493661 0.022861744119673 0.093848241720729
-0.069950250057438 0.026890272545506 0.093902074706509
0.069927185391516 0.026964947980259 0.093863173602578
-0.068200023039143 0.031025314061274 0.093749730872663
0.068307513602108 0.030812442872419 0.093964472227147
0.069035220514526 0.029139374930827 0.092494493292730
-0.067170732296390 0.033328701182973 0.094648366857651
-0.066076653620650 0.035335756738018 0.094067477065173
0.066216340014842 0.035069082522456 0.094127494149253
-0.064158190730797 0.038754163106649 0.093853563422798
-0.062798398671140 0.040873972362970 0.094400735861180
0.063746582038845 0.039398505248212 0.094289352858281
0.065078126635270 0.037194049035473 0.093108817135520
-0.061275649440054 0.043136776176879 0.093990270192944
0.060461112245673 0.044301583480666 0.093649759036743
0.061870791182062 0.042306360742936 0.094052928063310
-0.059487957567850 0.045557578947976 0.094346053498430
-0.057838948757907 0.047653713614965 0.093954196216528
0.056815801807663 0.048902775128333 0.094414062889624
0.058449344390012 0.046902569354997 0.094182663857630
-0.055716933165711 0.050106114799904 0.094171332646334
-0.054109457297813 0.051835814992345 0.093957087681876
0.054820367532533 0.051087413659992 0.094114094931165
-0.051905691905595 0.054060347833541 0.094124540118081
-0.049934333419682 0.055867562182805 0.093854524075978
0.048951697774530 0.056798047816634 0.093842257509633
0.051058040618040 0.054842560989860 0.094349537221108
-0.047910873121629 0.057664290554908 0.093973057348667
-0.045320828918776 0.059674359967885 0.093793436137869
0.044398203054947 0.060406694150901 0.093542866958181
0.047037299981237 0.058336732784929 0.093943649135455
-0.043242427106462 0.061264501074648 0.093963745703999
-0.040775499512218 0.062860795153896 0.094176687034309
-0.038026594457429 0.064606194603269 0.093638160685908
0.039132766478258 0.063915963552476 0.093819316497305
0.042276556203198 0.061878261690269 0.094121651238251
-0.036203954503559 0.065600766950094 0.093892910972218
-0.032969848882773 0.067303781328231 0.093985317614380
-0.030093019191467 0.068615527120849 0.093901766496713
0.031144573712976 0.068155916303637 0.094184698298759
0.034999240821925 0.066263532417891 0.093923603202164
0.037160564712784 0.065081726295243 0.094373083958991
-0.027903604874165 0.069564532386878 0.094239695652249
-0.024922653306901 0.070665118118843 0.094129315280163
-0.021247173362856 0.071873075901785 0.093756738272036
-0.017807398853293 0.072783348187336 0.094192723664861
0.018883759165928 0.072513110440603 0.093877277577329
0.023021158254496 0.071323615162255 0.094237714019164
0.026957926945866 0.069928472104195 0.094125790091046
0.029042815772116 0.069088421458461 0.094089926790886
-0.015932899382379 0.073251493052921 0.094427488964998
-0.013050306862508 0.073791319871671 0.093809610210608
-0.009062876968241 0.074403316527749 0.093788491451353
-0.004881589587759 0.074776553171087 0.093971962010587
-0.001256660180775 0.074943576808050 0.093828528590707
0.002840328563207 0.074896672437220 0.093807164303345
0.007131291527254 0.074593483820428 0.094087048049950
0.011028924738294 0.074130561199982 0.093866890954070
0.014947513461827 0.073445117415737 0.093885109164076
-0.000003064883489 -0.074993086962182 0.098767087266608
-0.023380010246144 -0.071106833496483 0.097979287228823
-0.021016504434652 -0.071698802611694 0.097820900466200
-0.016992386709615 -0.072762614411806 0.097814936875191
-0.012966958090553 -0.073590191871560 0.097859440575299
-0.009015932759374 -0.074166673294435 0.097842848911736
-0.005078012541900 -0.074538775930991 0.097801047394535
-0.000938102984737 -0.074698248740551 0.097813058152631
0.003067045393195 -0.074639521999368 0.097823790705430
0.007077303185487 -0.074401924004993 0.097851662757899
0.011049883117683 -0.073900489600806 0.097842000842063
0.014990335398455 -0.073208214912547 0.097833989153064
0.019002224458268 -0.072261751812155 0.097789399791768
0.022285443840597 -0.071360253668902 0.097842324188338
-0.032154882664870 -0.067498571001542 0.097887809645449
-0.028988563167925 -0.068863482777771 0.097828833469822
-0.025178489151373 -0.070325456620219 0.097794209085115
-0.022524020201625 -0.070796481870349 0.097789209433387
-0.018263992366723 -0.069101267607928 0.099298715591431
-0.013430536930990 -0.068254308202147 0.099298715591431
-0.008255014098158 -0.069281394579047 0.099298715591431
-0.005645133094074 -0.067592429522929 0.099298715591431
0.000763623657202 -0.068238183073703 0.099298715591431
0.003305043208785 -0.069050225163112 0.099298715591431
0.008998846314866 -0.069120682357945 0.099298715591431
0.011548719273088 -0.069535151555168 0.099298715591431
0.015547965642096 -0.070928909022995 0.099298715591431
0.018608356630031 -0.068794418187369 0.099298715591431
0.024169334059378 -0.070653897745865 0.097754233124664
0.027015756192996 -0.069674541962999 0.097853185270731
0.030987908230065 -0.068022119814518 0.097833289734188
0.033314035072833 -0.067102908161751 0.098088656160825
-0.039619735189101 -0.063391942707477 0.097864388804211
-0.036952898906318 -0.064934444795144 0.097843491101522
-0.034030525891944 -0.066483455936973 0.097815970260061
-0.027821040252268 -0.065150439707085 0.099298715591431
-0.025484942865778 -0.066238776122314 0.099298715591431
-0.017236077347941 -0.065433692920838 0.099298715591431
-0.012496499981933 -0.064948039361233 0.099298715591431
-0.008913168466019 -0.063902214740418 0.099298715591431
-0.006080021583057 -0.066134175608969 0.099298715591431
-0.001352650823043 -0.063944376976783 0.099298715591431
0.002993474679135 -0.065104498885575 0.099298715591431
0.006976909740172 -0.064649032892596 0.099298715591431
0.011075180462757 -0.064671533632560 0.099298715591431
0.015720924218128 -0.063970815332138 0.099298715591431
0.022746349911789 -0.064951182794161 0.099298715591431
0.027329658952637 -0.065642577087477 0.099298715591431
0.032735701915628 -0.066701700368282 0.097701911437282
0.035135177105355 -0.065927420121165 0.097812572347412
0.038606507178665 -0.063995393583615 0.097827712162763
-0.044429775412187 -0.060069687938194 0.097840646272767
-0.041530160547550 -0.062085434092091 0.097857845714725
-0.038048413661905 -0.061091716791747 0.099298712466704
-0.033005241320188 -0.061135920085909 0.099298715591431
-0.028713795909974 -0.060688310703879 0.099298715591431
-0.025498642148523 -0.061502743236867 0.099298715591431
-0.021671609807416 -0.060786221161693 0.099298715591431
-0.016673132692178 -0.061106730356596 0.099298715591431
-0.013914482104350 -0.060947962252580 0.099298715591431
-0.009245061931824 -0.060897237268439 0.099298715591431
-0.003263546157184 -0.060817530051043 0.099298715591431
-0.001310521148414 -0.060874967894101 0.099298715591431
0.002896796763270 -0.060945127687595 0.099298715591431
0.005026575508829 -0.061019044178783 0.099298715591431
0.010796266237958 -0.061474024785477 0.099298715591431
0.016711913185672 -0.062334413068771 0.099298715591431
0.020356209983575 -0.061758855602990 0.099298715591431
0.022692999275117 -0.059970963395802 0.099298715591431
0.028393073704301 -0.062911030298342 0.099298715591431
0.032227882936416 -0.060587068514826 0.099298712630895
0.035220912725730 -0.062356264239261 0.099298711785390
0.040535606021875 -0.062714860442405 0.097759305485329
0.042976610243601 -0.061138289930037 0.097837932817036
0.045504831592119 -0.059319445307987 0.097823618821846
-0.048822570416399 -0.056571854110018 0.097861434253627
-0.046405286998357 -0.058523109358360 0.097818444821146
-0.041545550489556 -0.056825522836369 0.099298709884979
-0.037605675158198 -0.057008769199713 0.099298714194773
-0.032769964750645 -0.056894171391059 0.099298715591431
-0.029687355330951 -0.058702114324112 0.099298715591431
-0.025044274719308 -0.057880446087091 0.099298715591431
-0.020947041962301 -0.057218861484583 0.099298715591431
-0.015325428966895 -0.058524296260943 0.099298715591431
-0.014576218971719 -0.056369217819105 0.099298715591431
-0.008080843134662 -0.056828751741821 0.099298715591431
-0.005253743794132 -0.056751115276045 0.099298715591431
-0.001566961831403 -0.057163725524654 0.099298715591431
0.003179907184250 -0.056506446996585 0.099298715591431
0.006769252555714 -0.057462261416848 0.099298715591431
0.010913471470579 -0.056002907892819 0.099298715591431
0.015190461194802 -0.056986583202427 0.099298715591431
0.017991829376712 -0.056788927654191 0.099298715591431
0.026242657147700 -0.056594300995846 0.099298714047591
0.031601384739620 -0.056396692662716 0.099298710506131
0.034818015730856 -0.055151928411293 0.099298708650595
0.039759476183286 -0.057124488249311 0.099298708415597
0.041478496127134 -0.057277154369055 0.099298708356033
0.047479299254610 -0.057691519318291 0.097823943878483
0.049852736040644 -0.055695609233930 0.097846334699364
-0.052777466474429 -0.052890047338695 0.097853801334542
-0.050623772060296 -0.054700214870099 0.097775973726854
