ply
format ascii 1.0
element vertex 857
property float x
property float y
property float z
end_header
0.067711522687779 0.032227248967575 -0.076052969784063
-0.065291965253477 0.036646705668185 -0.075456758109550
-0.064074868443402 0.038853285207228 -0.076315214930292
0.064545295538530 0.037979949540227 -0.074926849059670
-0.062449763830890 0.041414199637527 -0.075587859318002
0.062387359191044 0.041508668895430 -0.075733978812841
-0.060624857519560 0.043967359045468 -0.076168317720566
-0.059142180833472 0.046027425487523 -0.075790305669958
0.058439701865779 0.046975003571713 -0.076015657701976
0.060261205293353 0.044482586279561 -0.075054098933768
-0.057036159460314 0.048611688450186 -0.075942129586840
-0.055081636190806 0.050754491794247 -0.075722137278488
0.055210240635698 0.050557271598926 -0.075464391184084
0.056959403421832 0.048670936807092 -0.076038351481367
-0.053342080565770 0.052645252030030 -0.075772634719477
-0.051317034326060 0.054641532946887 -0.075705034283707
0.051014217497776 0.054903232011769 -0.075859356227410
0.052896845879077 0.053075073276861 -0.075764266348231
-0.049243285291845 0.056402981904288 -0.075605433586756
-0.046920660170976 0.058404037367696 -0.075721793947413
0.046504326655913 0.058760029112034 -0.075550393137695
0.048867415226589 0.056724888068041 -0.075697657937266
-0.044893047926986 0.060061113677497 -0.075529930365770
-0.042582960230784 0.061625049566444 -0.075622218770623
-0.040023051348099 0.063344778574060 -0.075585562533602
0.042040264756739 0.061957961514529 -0.075710283525706
0.044534058628232 0.060304686170088 -0.075876053360070
-0.037529196297451 0.064904465862444 -0.075460381999349
-0.034715647227855 0.066398922253399 -0.075665681300445
0.034378549815391 0.066543575558813 -0.075404701392662
0.037257186218800 0.065042017486072 -0.075618519720853
-0.030304996712519 0.068575629859398 -0.075552323334226
-0.026934326106304 0.069940673973493 -0.075856061391169
-0.023011661735724 0.071358128953320 -0.075274265973239
0.022743619730459 0.071420585733053 -0.074912867893246
0.025730358467920 0.070361514617766 -0.075640587215938
0.029486661779056 0.068927964208477 -0.075592771541556
0.032060433630527 0.067678531960345 -0.074594160438603
-0.021174550581166 0.071974948393598 -0.074249535195297
-0.018133429200156 0.072883565917406 -0.074556775663384
-0.014306659966264 0.073995930460051 -0.074981428007861
-0.010408155425616 0.074560034822621 -0.075607959240466
-0.006473951892918 0.074875443293660 -0.076166454932454
-0.002551981598005 0.075059439194599 -0.076461258293442
0.001588664265786 0.075110167341034 -0.076426539023472
0.005651406614768 0.074957758476934 -0.076201766459237
0.009631577816275 0.074681842010570 -0.075669681642498
0.013642986066619 0.074097669190856 -0.075110025154833
0.017397717042902 0.073109255994250 -0.074599182647713
0.020660344303976 0.072125195132563 -0.074272029536562
-0.013544431855648 0.077607787511425 -0.074019115154671
-0.010248655708164 0.077164616037283 -0.074565629833238
-0.006359466215052 0.077070360144822 -0.075039473498156
-0.002536576700453 0.076633422044535 -0.075325491465156
0.001591143252936 0.076571812638617 -0.075363855654888
0.005569979784635 0.076881778600071 -0.075124756746632
0.009411973825374 0.076769333114541 -0.074689522521612
0.013074918248858 0.077512887169455 -0.074103082924149
-0.013569309769493 0.080447887078770 -0.073938375952487
-0.010345246067983 0.080698860492488 -0.074331585402601
-0.006365098383512 0.080652889649341 -0.074785511414947
-0.002443663718870 0.080708473130464 -0.075003201739896
0.001655881198972 0.080693499393683 -0.075018431327389
0.005582018190222 0.080643017265277 -0.074836998078250
0.009603410962941 0.080640852296132 -0.074427381489840
0.013123730501774 0.080435566842057 -0.073981972506278
-0.013908999965928 0.085532675374461 -0.073928484662591
-0.010625839707345 0.085603623367312 -0.074490419064709
-0.006345105203398 0.085691759449493 -0.074960381054958
-0.002452209797597 0.085582652996861 -0.075228087682488
0.001888477552112 0.085691294611801 -0.075230469707816
0.005573015220624 0.085725174767466 -0.075013347180096
0.009471142956909 0.085682715647765 -0.074634989787082
0.013748662087486 0.085335426297881 -0.073949157447485
-0.013569673134799 0.089480485026049 -0.073992726082174
-0.010347668944126 0.089720178240832 -0.074532959120268
-0.006328494293995 0.089721522704171 -0.074963779505083
-0.002139104521301 0.089761571505581 -0.075247788314206
0.001752756629343 0.089587952949366 -0.075251691861524
0.005556701133422 0.089458802738418 -0.075022750021557
0.009911653460760 0.089669299224517 -0.074586215237747
0.013224629731879 0.089571849410830 -0.074044079278316
-0.013514986735369 0.093214443449115 -0.073888804902352
-0.010345076844497 0.093098509667048 -0.074297366291221
-0.006322939249380 0.093149088515906 -0.074755929008492
-0.002392306827561 0.093101254109141 -0.075002223458068
0.001585719295210 0.093090082313038 -0.075037301196983
0.005564985100581 0.093115276786823 -0.074798877684488
0.009708520979938 0.093107920178957 -0.074400036648691
0.013038356017861 0.093267214085466 -0.073963881413147
-0.017650784088797 -0.072844032034445 -0.071792041957497
-0.015309366696738 -0.073327630891289 -0.070068126709133
-0.011071248555371 -0.074086268558013 -0.072961983061997
-0.006324305621827 -0.074623347574903 -0.072847002693649
-0.002011276367236 -0.074879280659506 -0.072156986303298
0.000484812569636 -0.074975123638813 -0.071656224714208
0.005302474077034 -0.074694880908924 -0.071954275648790
0.009099420425096 -0.074402191189914 -0.071078809865504
0.013021417559140 -0.073737036658486 -0.071422765150073
0.018142429606778 -0.072714600781274 -0.071777698515127
-0.028801707809461 -0.069118918701588 -0.070957982460823
-0.025329938847868 -0.070540480629483 -0.071867508932300
-0.023512392568090 -0.071095383356978 -0.070700153591912
-0.020166627265720 -0.072117981966538 -0.072741895462000
0.019438299537597 -0.072352761932705 -0.071066241200929
0.021195909089986 -0.071814991680417 -0.072392370488759
0.026261217874907 -0.070190512540089 -0.072395113467246
0.028994366958822 -0.069042248309147 -0.071866656643189
-0.036587218968360 -0.065338146633772 -0.071774372443888
-0.033534054402106 -0.067038299962006 -0.073259309159975
-0.031104893601065 -0.068104847704060 -0.072669807690662
0.033456801113212 -0.067075043138624 -0.071336882865613
0.036766698043612 -0.065235270360983 -0.070347428946476
-0.041183525200032 -0.062628668233371 -0.072313677031759
0.041274229287281 -0.062568158938332 -0.070813729289135
0.044069710166559 -0.060558085133709 -0.070961601106196
-0.049117794548757 -0.056657822373704 -0.071723326789595
-0.045544365407804 -0.059417964396623 -0.072205007182530
0.045380392650387 -0.059557905475622 -0.070576142618821
0.048436906235998 -0.057216887945865 -0.072158686094729
-0.052583067017979 -0.053294137673188 -0.073146197586260
-0.051188239772905 -0.054648005956195 -0.072309379370640
0.052296663596723 -0.053589995288453 -0.071535071221232
-0.056864735089801 -0.048741781542294 -0.071160931000107
-0.054942584603850 -0.050958881282765 -0.071387123916310
0.055309986521619 -0.050650257699201 -0.070095757887698
0.056451873150882 -0.049261923288291 -0.073289767685168
-0.058779299597045 -0.046382265726224 -0.071095984171759
0.058347471953412 -0.046929735589118 -0.070744126409586
0.060090341162458 -0.044782504186954 -0.070296400777094
-0.061094301512677 -0.043452525363871 -0.071875418575539
0.061763827801421 -0.042419642320703 -0.072145919103727
-0.065183358328846 -0.036994973383655 -0.069985102412476
-0.063271850604895 -0.040020778553657 -0.069932408521834
0.064897822349918 -0.037464319645840 -0.072059079035388
-0.066234323373062 -0.035052710299157 -0.070964002282255
0.066547894728676 -0.034387470219601 -0.072460517281214
-0.069148286636835 -0.028945588796106 -0.071804031932800
-0.067794463339300 -0.031785642029592 -0.072481515608022
0.068355882565610 -0.030608796476711 -0.071938048360910
-0.069914625143669 -0.026953891958302 -0.071931695859350
0.069748838087487 -0.027457451429892 -0.071218569507262
-0.071611606139487 -0.021937279954967 -0.073231663043127
0.071224308179250 -0.023109968502483 -0.070647935742550
0.071715037858230 -0.021653530635849 -0.073210123103392
-0.072729225125265 -0.017942112038784 -0.071837056105247
0.072300919040163 -0.019928421137323 -0.073240089837956
-0.073306708952856 -0.015198726074739 -0.071943155604801
0.073275124173920 -0.015375877064103 -0.073438712926508
-0.074126158123185 -0.011029790779646 -0.071471259795229
0.074195320475437 -0.010643393705283 -0.071035090502232
0.074616300850689 -0.006187367216081 -0.072615781559759
-0.074952255844278 -0.001463494314970 -0.071771234787642
0.074951168271380 -0.001486857973734 -0.071517966344724
-0.074861257734909 0.001684320695653 -0.071359373680308
0.074865542015660 0.001143526115416 -0.071940181909525
-0.074688505882772 0.006461717636924 -0.072406888320687
0.074700696846043 0.006372849475102 -0.072000299932297
-0.074207820863890 0.010025635206708 -0.071758526460009
0.074384344495527 0.008816738297572 -0.072333873207357
-0.073609817340931 0.014000030012562 -0.071515164102062
0.073633625820613 0.013830645569012 -0.072173488417124
-0.072982030752045 0.017023815766202 -0.071640946215841
-0.072322935575655 0.019417760117478 -0.072728322194491
0.072930718795216 0.017155865016318 -0.071745686232067
-0.071752892491603 0.021507520781998 -0.072204337867668
0.071433779214939 0.022588408173498 -0.071715080231768
0.071858593419860 0.021035334781900 -0.072447974991725
-0.070466448684202 0.025484678374759 -0.071516942580501
0.070424970388312 0.025586673083023 -0.071871022717208
-0.068861669328857 0.029464527032721 -0.072752488755574
-0.068192044256594 0.031123186883439 -0.071461960137167
0.069158824098681 0.028660037105105 -0.071009199014724
-0.066807105054868 0.033922975843882 -0.071531127214057
0.066854465550122 0.033838299452522 -0.071745686725558
0.067808089914934 0.031991289483429 -0.071401524882512
-0.065092656609803 0.037012908912282 -0.071831432215931
-0.064119583442430 0.038777744741254 -0.072000288653794
0.064791070489108 0.037527536510709 -0.071507297528067
-0.062681977674354 0.041093043462192 -0.071614438577162
0.062548545727801 0.041289681149655 -0.071746980322326
-0.060666830444704 0.043940571676420 -0.071446858928384
-0.058801185570174 0.046504373597363 -0.071475513779905
0.058504314454004 0.046899951736518 -0.072151657519885
0.060576768272638 0.044070329648343 -0.071037289927263
-0.057230289333044 0.048418735094518 -0.072117752942525
-0.055544079845036 0.050274750775779 -0.072491181779581
0.054870183427181 0.050923152811282 -0.071403112957455
0.056916382097377 0.048749224142303 -0.071704290590223
-0.053089556568766 0.052940727597670 -0.071417011436197
-0.051282200433007 0.054692578464773 -0.071985386435565
0.051075879013801 0.054875864191432 -0.071472306730524
0.052872958780309 0.053098814670582 -0.071930754014182
-0.049142028845490 0.056526202386355 -0.071157270448446
-0.046967421928806 0.058367353812681 -0.071312248452504
0.046336730547721 0.058905166978262 -0.071980027374991
0.048964645366692 0.056666830540274 -0.071529663169003
-0.045040857401319 0.059950555977960 -0.071679786842673
-0.042478355937394 0.061731841868576 -0.071477767576838
-0.040037687451495 0.063353794644058 -0.072389983360063
0.039563488934850 0.063598551233512 -0.071913478791091
0.041394065753612 0.062428012832030 -0.071854294885338
0.044682240317759 0.060208842568399 -0.071660780562440
-0.037724016007278 0.064792131222749 -0.071664590084327
-0.033505854682409 0.067109622476932 -0.070272211835182
0.033399111448191 0.067157695947333 -0.070430663028514
0.037306696383608 0.065017805992148 -0.071774019241129
-0.032469682721812 0.067695108285385 -0.070111043121081
-0.030069460372050 0.068992422288242 -0.070764989755198
-0.026708455321942 0.070504541743934 -0.071728076809485
-0.023399885515648 0.071337824488026 -0.073184318160744
0.023066799737251 0.071423151206299 -0.073309283990331
0.025833060014523 0.070723085762006 -0.072132794877033
0.029522548561557 0.069276361444544 -0.070954834328418
0.032056507513928 0.067876761370636 -0.070366004042555
-0.026053679196413 0.072618983627617 -0.070635383345069
-0.022314341980271 0.072985053820406 -0.072250231796179
-0.018584912629382 0.074066581668890 -0.073131820273042
-0.015867693428809 0.075091178563091 -0.073583745450049
0.015348804019266 0.075330097276465 -0.073651220088082
0.018055727645633 0.074251217972485 -0.073231873818714
0.021548274279881 0.073095449771320 -0.072564699968970
0.025478596382506 0.072879034120758 -0.070867060464800
0.027902126578467 0.072527521771666 -0.069820576114185
-0.025939078732676 0.077635794491033 -0.070569748163057
-0.022357111453212 0.077473430690187 -0.071785426343164
-0.018167121382786 0.077612681502120 -0.072992218427581
-0.015759930083154 0.077529529808290 -0.073572799549020
0.015385347952759 0.077758810421543 -0.073651057627003
0.017587986779282 0.077656410535874 -0.073131334911091
0.021650888185223 0.077476270616083 -0.072003524670023
0.025434828250763 0.077916936766376 -0.070763933082097
0.027936850302549 0.077479802323924 -0.069795002055271
-0.026143039733048 0.080632817209474 -0.070354477202901
-0.022351425285957 0.080614791235335 -0.071621396773898
-0.018344052208567 0.080624952351294 -0.072729725313745
-0.015087567396803 0.080697470295873 -0.073441459232413
0.014549274731099 0.080768955285317 -0.073505812895608
0.017613046059048 0.080655948572949 -0.072925023267483
0.021661957047614 0.080645864450300 -0.071839496962799
0.025719894804023 0.080617846295939 -0.070486019803500
0.027891897670746 0.080424696134646 -0.069809852007732
-0.026473252463259 0.085515323131018 -0.070406460857393
-0.022315671639636 0.085602176001514 -0.071837626005263
-0.018738871233717 0.085827730566901 -0.072836093680473
-0.015814564761144 0.085925835352075 -0.073581677709577
0.015433162848277 0.085274357065601 -0.073663837334095
0.017695692349038 0.085365445677224 -0.073101684828864
0.021816915573207 0.085598462365118 -0.071984356996098
0.025757875524645 0.085630530818180 -0.070660103582765
0.028017024631437 0.085419992840818 -0.069830978947584
-0.026225503998409 0.089627625305094 -0.070500990616884
-0.022350940983918 0.089586975017907 -0.071834636404711
-0.018086880406321 0.089674227870601 -0.073010248358604
-0.015787123026118 0.089810295136271 -0.073591757233853
0.015480849652720 0.088585732732642 -0.073660352804345
0.017597451730735 0.089723359165578 -0.073132303019130
0.021546475897614 0.089779820162060 -0.072081321912704
0.025511279373638 0.089764663337184 -0.070754159706512
0.028007285277612 0.089962561331641 -0.069848013185702
-0.026168099008111 0.093152745746537 -0.070325587462292
-0.022380190277261 0.093153766528263 -0.071608062586719
-0.018368243611254 0.093129079141638 -0.072714808057620
-0.015010117824752 0.093041298280676 -0.073451722901537
-0.011206715703617 0.094598774288453 -0.070790936909802
-0.001709363692920 0.094598777371908 -0.071089332812324
0.001621938087634 0.094598777426100 -0.072115331008091
0.004922776275735 0.094598777411323 -0.071568659620996
0.008734962130370 0.094598777483551 -0.072606709846822
0.014661900805870 0.093018256737748 -0.073503381510207
0.017675270730260 0.093162171733554 -0.072923580030299
0.021568688174754 0.093108703315198 -0.071843659850971
0.025631158010564 0.093092760967195 -0.070495256274585
0.027924332197957 0.093389959446805 -0.069825185317872
-0.017272674814131 -0.072970899600997 -0.068237957146590
-0.015115172009093 -0.073364452040690 -0.068247547462376
-0.008993522972169 -0.074446544481632 -0.068809464452884
-0.006295003980288 -0.074627422214243 -0.068072812293023
0.000951668348957 -0.074952827915299 -0.068465234821833
0.005021066703753 -0.074715856071195 -0.067998461828405
0.009644906631949 -0.074339545286441 -0.067770603428813
0.013301627450062 -0.073690677685227 -0.067495412853142
0.017567161147813 -0.072886312343211 -0.067753641889540
-0.029084777060360 -0.068993833350837 -0.069572571560609
-0.026882409129568 -0.069942309773851 -0.067558472119800
-0.022110221939235 -0.071522118732825 -0.067436946925257
-0.020114051296111 -0.072132216963405 -0.068630913008014
0.021070668781423 -0.071857504660279 -0.066992651540756
0.025364010005993 -0.070539039409333 -0.066923352916255
0.028759653784646 -0.069148132530769 -0.067108632665481
-0.034089469466933 -0.066742258789577 -0.067734379012639
0.031465770549321 -0.067955186268609 -0.068821825773279
0.035567304320928 -0.065943671531782 -0.067054966624465
0.036517388077639 -0.065382529875783 -0.068920768227878
-0.043867463365809 -0.060697031468287 -0.068667337341409
-0.038801341002109 -0.064029174131574 -0.067409617718610
0.039464728829463 -0.063641852194258 -0.067146264832374
0.042046365566802 -0.062051949931551 -0.067354790045842
-0.049021957354489 -0.056733792794698 -0.067753104737001
-0.047052191543745 -0.058272886197276 -0.068482151625425
0.047196677477592 -0.058174266599508 -0.067815465027443
0.048585122562187 -0.057115177947575 -0.068021536879738
-0.050944303443568 -0.054883680172096 -0.067911986161238
0.050947507305720 -0.054905070465898 -0.068067447397989
0.052629217488323 -0.053270114684356 -0.069607159216437
-0.054704009283446 -0.051244954071748 -0.066693873182866
0.054625419082256 -0.051331805556869 -0.067460740605122
-0.059115193144013 -0.045968893671422 -0.067623334560473
0.058584767789104 -0.046642334677341 -0.067506720415592
0.059703383545063 -0.045263837852783 -0.067444991680842
-0.061315237030585 -0.043076149185158 -0.068535091403270
0.061550926299657 -0.042725622369032 -0.066499623712635
-0.065012963625465 -0.037262399114186 -0.066939168108194
-0.063397567020039 -0.039821082473219 -0.065834470350002
0.065022047524793 -0.037276161793335 -0.067318737013356
-0.066355035336935 -0.034813376522827 -0.067079376108014
0.066434975734976 -0.034649091569281 -0.067794032894757
-0.068999029444051 -0.029265639209052 -0.068229307992227
0.068814337588768 -0.029655588145517 -0.067113026658649
-0.069642212206755 -0.027754688566561 -0.067748178900389
0.070072165109479 -0.026516379710309 -0.067547764623708
-0.071375483903086 -0.022633337081046 -0.067485253601514
0.071909045524043 -0.021093501807648 -0.065993961416294
-0.072975621365372 -0.016767269460795 -0.067409647096108
-0.072247874622807 -0.020100296205269 -0.066208168227366
0.072503071820010 -0.019025555221935 -0.067908149467119
-0.073592353244928 -0.013837566611143 -0.067662141648828
0.073253323670199 -0.015492790175085 -0.067201930410618
-0.074229433025389 -0.010428413168807 -0.067360278669420
0.074094151415317 -0.011314695193348 -0.068417390920687
-0.074510665726341 -0.007337158922818 -0.068143634060812
0.074649146484699 -0.005838197215253 -0.068364530898128
-0.074957801777211 -0.001264677010509 -0.067523864200437
0.074963999616376 -0.001346784384152 -0.067215200123845
-0.074871011980757 0.001529654609140 -0.067674952754204
0.074858669115819 0.001414251136226 -0.067861727534564
-0.074721412295810 0.006008503335139 -0.067482247052880
0.074708397710972 0.006003777386079 -0.067734631524618
-0.074301558010935 0.009437978361269 -0.068006884077976
0.074345241674660 0.009176365644889 -0.067996654910977
-0.073555733609128 0.014375277020321 -0.067953968029107
0.073576803140595 0.014201635443200 -0.067673797646636
-0.072982682280338 0.017050558717673 -0.067723023076963
0.072745160454670 0.017864377266944 -0.067270830222994
-0.071649091039891 0.021917727319783 -0.067787126259087
0.071361050357247 0.022843639211899 -0.066695703409000
0.071830513054775 0.021127315059254 -0.067496053118557
-0.070452426894027 0.025567844283115 -0.067320892508435
0.070179515471181 0.026200544193649 -0.067669335756212
-0.069015905611010 0.029115953886065 -0.067325155575348
-0.068305322693281 0.030863122198271 -0.068169604217995
0.068692133719739 0.029804937722273 -0.067806967573888
-0.066936297045948 0.033694897683409 -0.067330124495212
0.066924313592343 0.033730706230670 -0.067531158254944
0.067825832622075 0.031938668178551 -0.068531886312981
-0.065147569627637 0.036918713897877 -0.067637711106090
-0.063990274083861 0.039017475225906 -0.067988505217540
0.064880812612559 0.037358855236862 -0.067267859474205
-0.062227659099403 0.041764592650044 -0.067932684196016
0.062358621069266 0.041582447023267 -0.067782742565717
-0.060607845956328 0.044057506262632 -0.066275781948316
-0.059093257477900 0.046117537806707 -0.067429805663703
0.058570704334498 0.046813637107415 -0.068049576605057
0.060083639078730 0.044778849305735 -0.067936563019076
-0.057366320952167 0.048277851257659 -0.067978677067145
-0.055526934322645 0.050333601996766 -0.067309105426458
0.054855786779633 0.050962270298162 -0.068574974272567
0.057021339274384 0.048665951231103 -0.067615933792205
-0.053229533112840 0.052799676936177 -0.067628114461142
-0.051407434014213 0.054584239262091 -0.068022387373751
0.051144794224693 0.054817855131268 -0.068072343866232
0.052981596035286 0.052977558926247 -0.067615762151946
-0.049151316544528 0.056575369641166 -0.067352670220265
-0.046944534815021 0.058403735911829 -0.067792508483413
0.046531669619282 0.058745342105706 -0.067523163575722
0.049116952038756 0.056589001803689 -0.067908279020396
-0.045002809371181 0.059975514188838 -0.067538946992475
-0.041397759154446 0.062567786823043 -0.066371918079901
-0.040040033770440 0.063453070829717 -0.066867798862025
0.039629238614957 0.063602144056042 -0.069527405438487
0.041080151769173 0.062767602013637 -0.066530301439262
0.044514393825705 0.060328961781483 -0.068013534365157
-0.037952005101011 0.065137100274302 -0.067166080110811
-0.035142991003219 0.066637290215385 -0.068535695512460
0.034663081577043 0.066750291017642 -0.068932942609830
0.037514324397184 0.065344517338956 -0.067476742409140
0.039858313175479 0.063777080335854 -0.066455690189879
-0.036578436928935 0.068035463004463 -0.065862922238056
-0.034175545620006 0.069138761237931 -0.067284386161006
-0.030941722040587 0.070150817011831 -0.068914313274276
0.030442382062928 0.070451411742063 -0.069042588731989
0.033547762847736 0.069304097609503 -0.067636985104343
0.036073244256326 0.068676434526403 -0.066078699271652
-0.033879573956322 0.073372530116256 -0.066964369200378
-0.030065760115667 0.072886678839570 -0.068806430629094
-0.028204357471699 0.073150860203644 -0.069639413745795
0.029684466286153 0.073071903909526 -0.068974517906681
0.033474177782029 0.073469832134310 -0.067176521462596
0.035873457937230 0.073923500644771 -0.065957571955238
-0.036522863434846 0.078345183003534 -0.065730091858940
-0.033902853373814 0.077668024806067 -0.067091983343371
-0.030571409862652 0.077723825691923 -0.068670939139316
-0.028240206566357 0.077067920820795 -0.069671287624267
0.029727656305144 0.077696306183758 -0.069025758488006
0.033552744664983 0.077470003631226 -0.067245107019812
0.036029643312717 0.077765456972009 -0.065939962113186
-0.036464791461437 0.080341681155390 -0.065775589887176
-0.034208150959459 0.080699459135172 -0.066771037658968
-0.030349241834834 0.080677276340813 -0.068612495222171
-0.027926086838781 0.080807135628049 -0.069517222158082
0.027447220618966 0.080882046011635 -0.069607158998125
0.029746220450319 0.080631772781654 -0.068865400751472
0.033550666144337 0.080666772566815 -0.067089657509520
0.035987702338251 0.080635321782501 -0.065896169904010
-0.036484403749674 0.085945820513287 -0.065738666916493
-0.034556207630250 0.085739470224479 -0.066795895357112
-0.030338559630793 0.085636644803656 -0.068809069514354
0.029925532788877 0.085449262753449 -0.068990001724863
0.033352750944348 0.085363887583249 -0.067418335084723
0.036101090009969 0.086205825898395 -0.065944840735494
-0.036413875644153 0.090095413159344 -0.065780006272202
-0.034231002136962 0.089815767429165 -0.066971714056623
-0.030455272022664 0.089509388511299 -0.068757091847163
0.030020942112727 0.089559446347487 -0.068954774540726
0.033752907977868 0.089716490471439 -0.067213070590365
0.036117654485365 0.089740894210501 -0.065942460463357
-0.036396243146324 0.093414834286605 -0.065734309761972
-0.034159685720208 0.093134744954796 -0.066772102087467
-0.030341383489754 0.093143376532451 -0.068576706268518
-0.027900978090161 0.093009755307933 -0.069504473553469
-0.023057509626605 0.094598770141602 -0.068001354034477
-0.018496200027001 0.094598770287704 -0.067257290376481
-0.014175670489995 0.094598772295059 -0.067002187057042
-0.009555525845495 0.094598776289150 -0.067200902663525
-0.006593782248770 0.094598777229619 -0.068325912997464
-0.000407404736464 0.094598777172596 -0.067459912078283
0.002253589336629 0.094598777116931 -0.066190454730094
0.005399809778871 0.094598777257026 -0.068582581074804
0.009767655131926 0.094598778623132 -0.066920527009654
0.019438181703875 0.094598784433400 -0.066373579635892
0.021735856809020 0.094598784646146 -0.067823543225081
0.027278641157670 0.093037896793505 -0.069488848925309
0.029824238561610 0.093103152080000 -0.068799250651890
0.033582774087860 0.093120383717881 -0.067065880713037
0.036053967886918 0.093395753633150 -0.065921828265437
-0.017314737091736 -0.072958334636904 -0.063164737179131
-0.010540250093031 -0.074191456984566 -0.063710672130539
-0.006348900885338 -0.074628171583544 -0.064634546944378
-0.003179107547110 -0.074809603776327 -0.062933648919300
0.000252270066822 -0.074985501317959 -0.063721858210915
0.005342285707231 -0.074700716463178 -0.064367766041885
0.009374687813319 -0.074358263344166 -0.063083759565511
0.012016698402505 -0.073926294784995 -0.062899570372992
0.017523648360340 -0.072897839617165 -0.063519440381933
-0.029360951396009 -0.068870761195481 -0.064576822351681
-0.025577560015939 -0.070471506868028 -0.063786192842615
-0.023265004878329 -0.071167820941007 -0.063682350152157
0.021764102984193 -0.071648801879248 -0.063132240045128
0.025421051399601 -0.070504797002308 -0.063208057183380
0.029572571270045 -0.068791911035234 -0.063539301611934
-0.034698323779122 -0.066430027869058 -0.063744148330039
0.031463174936690 -0.067958852521191 -0.064006184254300
0.033669450869323 -0.066964951177884 -0.062982624921679
0.036827710230157 -0.065199338404682 -0.061847591733082
-0.041515447210202 -0.062440926731394 -0.064113463036403
-0.039779928122010 -0.063450029065970 -0.063448048165115
0.038950207660163 -0.063945782943311 -0.062585856206318
0.042205326384145 -0.061935499872303 -0.063172852056530
-0.048676932994731 -0.057042650138506 -0.063284853219007
-0.046276304656292 -0.058859520693347 -0.064420642952824
-0.044293248778011 -0.060370551888477 -0.064050754352414
0.045165031170571 -0.059730066730121 -0.063278362634106
0.048690900581144 -0.057019830881134 -0.063013069851408
-0.052761177533143 -0.053118564185427 -0.062835098597859
-0.049860252296084 -0.055934921805235 -0.063484383752575
0.051230955224977 -0.054637357446427 -0.063211490818665
0.051950754568304 -0.053937794428602 -0.063724184086937
-0.055792041316570 -0.050065140666967 -0.063095526062813
0.054786678686624 -0.051183825356357 -0.064000387816256
0.056044585140663 -0.049776499772958 -0.065184220582648
-0.059050141204046 -0.046049704884094 -0.063828497933336
0.058596195964511 -0.046636497987179 -0.062214039011717
0.059786396462931 -0.045167087559851 -0.063879763991183
-0.061015825152942 -0.043572158200303 -0.063725425026051
0.061233397564210 -0.043236436602004 -0.063198328690996
-0.065182388948665 -0.037013381423122 -0.064875948050501
-0.063708436390924 -0.039328624630780 -0.065599314956993
0.064581836243335 -0.037978386934745 -0.063659880814203
-0.066812164825977 -0.033846516338042 -0.063588149409032
0.066827515454893 -0.033831888291582 -0.064215999672279
-0.069207961537501 -0.028843797536311 -0.063097655841552
0.068877132225405 -0.029530869912522 -0.063155924081603
-0.069796161118043 -0.027295674928798 -0.064399892674660
0.070087462582231 -0.026487013245402 -0.063147655199797
-0.071580728028490 -0.022028661903369 -0.063302434394634
0.071443113394237 -0.022472557352801 -0.065537030274557
0.071760692504102 -0.021540263204455 -0.061845650608020
-0.072481555880595 -0.019112162038289 -0.065031440727590
0.072883708252703 -0.017256108918630 -0.063763470054272
-0.073430391311555 -0.014602620676505 -0.063114590540886
0.073653854013160 -0.013596578719242 -0.064107435352923
-0.074178306157472 -0.010707265710191 -0.064038187018777
0.074247087331027 -0.010264314972074 -0.064169677240831
-0.074647283006256 -0.005806668332051 -0.063716409196526
0.074612466874650 -0.006273023681700 -0.063206051855686
-0.074966425455621 -0.001112244138740 -0.064049339722907
0.074954867524500 -0.001346303932295 -0.063915553279191
-0.074912596560928 0.000546760723280 -0.063871129970585
0.074861054325928 0.001483091991995 -0.063559730322167
-0.074720712812295 0.005925743006702 -0.063622652778658
0.074702865347581 0.006258193290721 -0.063438208617945
-0.074358748438651 0.009131386954481 -0.063657108412725
0.074346074266666 0.009197223321475 -0.064003759613459
-0.073657555015809 0.013691910449022 -0.063184317393639
0.073657957768154 0.013652068990212 -0.064097230053673
-0.073048522488840 0.016806623906568 -0.063588577528484
-0.072333547332293 0.019427498725280 -0.065653774654427
0.072669626584719 0.018135071661154 -0.063764012980487
-0.071655366807072 0.021922484283996 -0.063749253843075
0.071199486175843 0.023426410960849 -0.062794426259189
0.072054390978575 0.020298475099851 -0.063121709422917
-0.070410132218662 0.025682975096925 -0.063787312310831
0.070311712777814 0.025912136620192 -0.063282235647541
-0.068938097254265 0.029331094370388 -0.063342364042385
-0.068099958571378 0.031392091704061 -0.062932048403802
0.068801874963583 0.029537038602581 -0.063105794377484
-0.066864779109633 0.033858208996983 -0.064070955187558
0.066797093529791 0.033993189791005 -0.063869520888024
0.067721933016453 0.032183258178366 -0.064348662905682
-0.065299408933066 0.036662985476319 -0.063676604363655
-0.064122398100563 0.038783466884016 -0.063609250001456
0.064777546726063 0.037552500563234 -0.064128632276789
-0.062496391119648 0.041383379461789 -0.063460678183256
0.062573669704180 0.041286990358400 -0.063769030369086
-0.060562812100767 0.044147334213013 -0.062245843901587
-0.058740103752086 0.046586096218723 -0.063641620978834
0.058819412797813 0.046495947789927 -0.063465518039539
0.060331157109164 0.044464305061740 -0.063499692454462
-0.057280139028966 0.048386073768292 -0.063743890795327
-0.055302748030340 0.050603601899765 -0.063761980103878
0.055028628984639 0.050868264139242 -0.063722026691558
0.056979418853101 0.048724672928348 -0.063479508294696
-0.053240330328118 0.052790939762233 -0.063527608602092
-0.051400629009911 0.054593605257318 -0.063744231516569
0.050914894046030 0.055030201221422 -0.063333671282785
0.053040483303789 0.052930801995776 -0.063537073776347
-0.048865424715764 0.056894796180914 -0.062508061723114
-0.046819424601787 0.058674122795481 -0.062921766067869
0.046595241310236 0.058861373994657 -0.063046087416325
0.048375155146091 0.057332427334125 -0.062311412395469
-0.045126343294128 0.060436745821920 -0.063082617559382
-0.042936574918014 0.062185143113000 -0.064156496414917
0.042579375132022 0.062372715042254 -0.064442627910953
0.044636305784151 0.060844635245003 -0.063364918049972
-0.041657542097214 0.065162277868488 -0.063034383959559
-0.039214148900355 0.066179494999721 -0.064700279077190
0.038763292547680 0.066376967596928 -0.064957438391910
0.041282624416430 0.065240578345697 -0.063345210695375
-0.041449695549614 0.069088352749979 -0.062455933271205
-0.038198287430891 0.068860220600899 -0.064601235598364
-0.036285589364483 0.070238471963486 -0.065653710537592
0.037900597349023 0.068961309107929 -0.064791390956523
0.041001079509450 0.069072723178722 -0.062759012760619
-0.041671105939361 0.073650484524661 -0.062423762320862
-0.038226446442919 0.073613966099940 -0.064582388726780
-0.036220235323731 0.072091793669055 -0.065699227064990
0.038027657399973 0.073474163123490 -0.064698304115493
0.041243358873563 0.073559780378969 -0.062697846227096
-0.041679606980864 0.077701776975397 -0.062555174126445
-0.038621686606746 0.077673510427448 -0.064486595024546
0.037909383879357 0.077591787993376 -0.064875912235733
0.041062882141645 0.077266234241830 -0.062898234055894
-0.041497662961417 0.080669894888162 -0.062477358231798
-0.038432701225844 0.080652721041816 -0.064420170354197
-0.036048834812926 0.080880749112938 -0.065544589974133
0.035589682431051 0.080810577491909 -0.065688229231269
0.037820059929448 0.080745105697804 -0.064732754275811
0.041084337663257 0.080672013008906 -0.062709535274744
-0.041682720994812 0.085646773082999 -0.062552086880386
-0.038675351240644 0.085472881784115 -0.064480354617794
0.038160713850321 0.085623402169561 -0.064794172408235
0.041338828621499 0.085366281367776 -0.062776046542144
-0.041940312518957 0.089772084285430 -0.062386814780465
-0.038571021358742 0.089770785195525 -0.064550927823598
0.037701918942216 0.089969974490957 -0.065061753656064
0.041074720871521 0.089600066933999 -0.062961189085146
-0.041515817653549 0.093145712297805 -0.062446765988522
-0.038387239005531 0.093109295928798 -0.064392491786935
-0.036044818511336 0.093020181600884 -0.065414700298908
-0.030007297392272 0.094598770141602 -0.063478842064236
-0.026662102877052 0.094598770141602 -0.063992760112423
-0.018634438169324 0.094598770141602 -0.064728914980840
-0.014712005030675 0.094598772497762 -0.062723424720148
-0.011078608901903 0.094598775628813 -0.062943576173439
-0.007003493526026 0.094598776968716 -0.063512274024182
-0.002610764085998 0.094598777029669 -0.064764240757698
0.001855492840314 0.094598777009206 -0.064170867899347
0.005949276005430 0.094598777082742 -0.065208770802280
0.013179834092159 0.094598781905904 -0.063792385102548
0.017874299522068 0.094598784031602 -0.062696787430053
0.025267639167246 0.094598784975701 -0.063193851107947
0.029500873541746 0.094598787785837 -0.063981800673465
0.034558978465533 0.093587385814928 -0.065620514024622
0.037893874698675 0.093106665866298 -0.064689063786937
0.041188000832143 0.093146238429462 -0.062649390926007
-0.017267077070288 -0.072935716168515 -0.058310108792445
-0.015076639651201 -0.073381226252876 -0.058907571941977
-0.009543370595843 -0.074361368389780 -0.059386411151422
-0.007077950730332 -0.074588498614565 -0.059674339445965
-0.002130578723029 -0.074871679703946 -0.059202487982827
0.000442956274166 -0.074989042037870 -0.060288399789548
0.006078746985360 -0.074662498252882 -0.059289445832816
0.009478162310497 -0.074362516145430 -0.060283342039636
0.013959973524471 -0.073578440181751 -0.061524726099316
0.016908096870699 -0.073047907766748 -0.059492734466064
-0.029131688483939 -0.068970420056566 -0.059881486240776
-0.025558884020048 -0.070474462532344 -0.059657761319009
-0.023163552948941 -0.071197169691609 -0.059997185075487
-0.019731318124859 -0.072245567299686 -0.060669829901635
0.025228441103962 -0.070583801680083 -0.059246302651298
0.029994136765985 -0.068607508871613 -0.061061492813115
-0.037168239893314 -0.064991016101349 -0.058548874693838
-0.034787249224217 -0.066366891500382 -0.059762141698670
0.034864381718274 -0.066364359301098 -0.059386556648052
0.036780551689452 -0.065227216303503 -0.059671285010600
-0.041577848592135 -0.062341526344534 -0.059376761788524
-0.039101653797968 -0.063849535663086 -0.059853293698962
0.038916152647174 -0.063965945759686 -0.058418048843445
0.042321601452645 -0.061838170892034 -0.060197262740144
0.043983364549583 -0.060635872789773 -0.059786633127143
-0.046155390353197 -0.058953524528617 -0.059166347208757
0.045537329321065 -0.059449974270914 -0.059396039653339
0.048558641701575 -0.057123781380623 -0.059522251841732
-0.053317796789415 -0.052577177598142 -0.058865957678958
-0.051007890359363 -0.054819861124746 -0.059829226621047
0.050355199278614 -0.055492631328620 -0.059892222502244
0.052686396920124 -0.053228979237860 -0.060245807357681
-0.056770616473183 -0.048859658317935 -0.059999692447966
-0.054436613236336 -0.051488629447738 -0.059614383654356
0.054959119502884 -0.051001432602181 -0.060121842490572
-0.057839797159521 -0.047542178937959 -0.058882106793010
0.058016930133231 -0.047355249391920 -0.059096175236811
0.060228093330076 -0.044628691899489 -0.059350209928086
-0.062446032339321 -0.041327491673827 -0.059599984099915
0.061753913716965 -0.042438700506828 -0.059384519506239
-0.065130086836852 -0.037094627640976 -0.058855397319962
-0.064258206111238 -0.038457113521959 -0.060747149414824
0.064838427461204 -0.037574665078934 -0.060012150417699
-0.066285355048678 -0.034971406044638 -0.059559592995695
-0.069076990198430 -0.029122031513700 -0.059563727166714
-0.067832560554762 -0.031728890963792 -0.059840934445205
0.067595764191064 -0.032228464908025 -0.059339885792658
0.068673501494839 -0.029965371515056 -0.059769486002699
-0.069629757077805 -0.027781273355629 -0.060061487992087
0.069737176096109 -0.027506348107027 -0.058836428006684
-0.071511098673456 -0.022251102208002 -0.059917594380374
0.071311874056495 -0.022870534832120 -0.060430151276406
0.071881770082953 -0.021186938175545 -0.059513269294940
-0.072494428025713 -0.019047363503612 -0.061253324790992
-0.072328357502585 -0.019815880788659 -0.058504872941924
0.072329186881129 -0.019818946003525 -0.058829690169268
-0.073468925394383 -0.014415594812666 -0.059011550500735
0.073691889643098 -0.013430044002657 -0.059779172138523
-0.074128131316540 -0.011279756355469 -0.059996121094223
-0.074677867738542 -0.005465248696990 -0.059997210668825
0.074551182575497 -0.006978876390517 -0.059144439833459
-0.074969831135583 -0.001083639713119 -0.059820978218944
0.074962444571445 -0.001141183146551 -0.060239448573570
-0.074924666740285 0.000581273300506 -0.059523175000899
0.074909744430265 0.000745591802669 -0.059219919454361
-0.074685590137963 0.006542916486501 -0.059745739727953
0.074711108769276 0.006129717844301 -0.059687616891845
-0.074224961691957 0.010033949656440 -0.059526081248516
0.074310767737891 0.009451277866385 -0.059923197142755
-0.073503903975687 0.014703425401475 -0.060530261159906
0.073671686915433 0.013581347693776 -0.059839606098786
-0.072925752768724 0.017287506621458 -0.059949567956091
0.072812473805532 0.017687433659222 -0.059904857132524
-0.071705222889269 0.021766739798597 -0.059281837798638
0.071361458282852 0.022827582637661 -0.060008112360964
0.072014107549594 0.020461677329434 -0.059074069420772
-0.070554782568969 0.025339978256502 -0.059690141720263
0.070491904713678 0.025478215837035 -0.059664744394696
-0.069065228931831 0.029039767385424 -0.059554675425470
-0.068118902950315 0.031365740606523 -0.060082368184906
0.068997229649453 0.029096550661323 -0.059763331851711
-0.067178283071436 0.033274634253232 -0.059767897854559
0.066869645695807 0.033880631548238 -0.059626951811442
0.067859914659257 0.031842611087455 -0.059924225512438
-0.065359905970288 0.036594716174115 -0.059722875251642
-0.064046505723628 0.038925646745754 -0.059857445404073
0.064846599426148 0.037467099333013 -0.059841939536913
-0.062572351735337 0.041282909724792 -0.059640223273538
0.062377867738633 0.041572247316800 -0.059797645579267
-0.060781399983251 0.043858221831363 -0.059715233643714
-0.059152531696671 0.046060745170322 -0.059520493102255
0.058789209939828 0.046530924720605 -0.059617426661345
0.060373821199309 0.044423347863136 -0.060753725921062
-0.057281976469724 0.048389171881059 -0.059769834280672
-0.055384491355473 0.050535589066448 -0.059194413069308
0.054757140090181 0.051223186975488 -0.059240148288564
0.056814317125547 0.048920433407878 -0.060009525358893
-0.053357563213993 0.052782460192981 -0.058490202572536
-0.051468083272027 0.054777348686893 -0.059472918839742
0.051038885927111 0.055096350959583 -0.059987232445459
0.052850519404847 0.053332518672810 -0.058718781268578
-0.049598770327987 0.057119909941698 -0.059684009378379
-0.047732401257769 0.058834257069934 -0.060642106776027
0.047217453661864 0.059150143069400 -0.061092855880615
0.049347517839925 0.057321799727325 -0.059894869203985
-0.048632250986477 0.060282144468347 -0.058018688072571
-0.046450216060915 0.061716314011747 -0.059880696444578
-0.044113666198332 0.063244772776601 -0.061467793183589
0.046084581736665 0.061838319364691 -0.060220233851061
0.048115230499061 0.061134682206332 -0.058220797327727
-0.045839547564059 0.065089445842004 -0.059368298134725
-0.043616828501570 0.065468478328698 -0.061173935211272
0.043240296619415 0.065670935038757 -0.061425748537560
0.045399179828721 0.065088001847514 -0.059739048778479
0.047712953683362 0.064957137567924 -0.057768581876920
-0.046155895531829 0.069813439562695 -0.059065955257387
-0.043313308486113 0.069332630921675 -0.061178202231425
0.043054538529703 0.069265895708986 -0.061367850987369
0.045582926471565 0.069576070025358 -0.059496101662720
0.047772714175186 0.070173224203160 -0.057790221867142
-0.046145174645923 0.073633983708967 -0.059190687674006
-0.043544948379271 0.073424597611624 -0.061128955266277
0.043233627528044 0.073359771116553 -0.061355402663670
0.045591949627821 0.073733384615328 -0.059616321934331
0.047808694317925 0.073529318690126 -0.057859395478609
-0.046192156263725 0.077688231532961 -0.059285803806989
-0.043585621241838 0.077505516303395 -0.061237121874039
0.043341143268084 0.077510525784097 -0.061392938890217
0.045610785150601 0.077686212211986 -0.059735721103946
0.047892831068185 0.077506883104182 -0.057929596900500
-0.046171421157158 0.080588752507413 -0.059121993957803
-0.043517485756818 0.080750911534462 -0.061057793218725
0.043078062052312 0.080750306387248 -0.061305741828995
0.045574665336692 0.080617976299989 -0.059551201979320
0.047860668697502 0.080422988668805 -0.057906762739284
-0.046203239998724 0.085650092470371 -0.059287115142934
-0.043487256059301 0.085664869538070 -0.061364225349836
0.043263044942606 0.085540499461510 -0.061502132389973
0.045807974291487 0.085383770141744 -0.059585645020042
0.047874550719639 0.085743112524435 -0.057952642651581
-0.046303390673753 0.089665476012645 -0.059208264392184
-0.043619033495000 0.089387070872886 -0.061274552469497
0.043286354634938 0.089189801635244 -0.061494855922844
0.045651519399033 0.089829548054210 -0.059719178103158
0.047949751038574 0.089637861872718 -0.057902375714205
-0.046137781107102 0.093163052898142 -0.059090830444889
-0.043500680637870 0.093100807781187 -0.061048596501726
-0.037982682849400 0.094598764929171 -0.060142049790126
-0.034115218805427 0.094598768773010 -0.059881917442277
-0.025366599030673 0.094598770141602 -0.059247817837241
-0.022218490745888 0.094598770141602 -0.059982150842035
-0.018491497198806 0.094598770298533 -0.059822152520662
-0.014617481714000 0.094598773177298 -0.058909531300421
-0.010684553679580 0.094598776256067 -0.059558286358030
-0.007178139936340 0.094598776780421 -0.060041811866287
-0.003435686456224 0.094598776777093 -0.060091518224328
0.001863938082369 0.094598776794583 -0.060075715741682
0.006050586832283 0.094598777127149 -0.060098696963522
0.009659649407813 0.094598780156243 -0.059362195064363
0.013697460206041 0.094598783022224 -0.059623861286404
0.016259466110313 0.094598783757735 -0.060376239385716
0.025152021067677 0.094598785512301 -0.060026295178102
0.029564494815682 0.094598789141656 -0.059525641280969
0.033909442149555 0.094598791554607 -0.060223140779165
0.039028661179207 0.094598792056308 -0.060726244202323
0.043070893506748 0.093052686007489 -0.061328793829960
0.045539928902944 0.093117552726777 -0.059538759576856
0.047829675269759 0.093145393790995 -0.057867651421167
-0.018609327451825 -0.072585910102901 -0.055522536813272
-0.014834390031780 -0.073427529257514 -0.056285424829486
-0.010140576474861 -0.074261856363750 -0.055029720668771
-0.006653236382055 -0.074613462478702 -0.055950853679068
-0.002734667644537 -0.074835686993630 -0.055658750519617
0.001811133806095 -0.074908440828937 -0.056303795877045
0.008853613985791 -0.074439072962704 -0.056300328927518
0.014132489989981 -0.073553675439732 -0.055400021667330
0.017817685879594 -0.072815363041728 -0.056201572701280
-0.029230184622431 -0.068925532828792 -0.054594644317748
-0.026386922668121 -0.070130226874407 -0.055845189699607
-0.022665838021516 -0.071349634455874 -0.056410525813065
-0.019308228406671 -0.072372215887222 -0.054910018455374
0.019512345018697 -0.072341620849172 -0.056555532236178
0.021793449301728 -0.071646693005107 -0.054463142949899
0.026105392528176 -0.070290386375066 -0.055545912746215
-0.037161048389119 -0.064994593167285 -0.056321677837833
-0.033710504897288 -0.066930250495961 -0.055739850513646
0.031088762196729 -0.068128096413518 -0.055770751765937
0.033844907420321 -0.066882063652008 -0.054999687667261
0.037439895739300 -0.064837845271756 -0.056545270669344
-0.041997098133196 -0.062112900395087 -0.055272280351841
-0.039516570263495 -0.063608704875462 -0.055492812279287
0.039130246192537 -0.063839548897838 -0.054515876260814
0.041576238440609 -0.062373625666145 -0.055396580530473
-0.048556920263207 -0.057144446632709 -0.053997368029851
-0.046743590718177 -0.058508208446146 -0.055859919874720
0.045087177654438 -0.059797291560932 -0.055944211404692
0.047969462215097 -0.057601733170090 -0.055444936840121
-0.053357458376984 -0.052537975148730 -0.056160596874048
-0.050206331751210 -0.055596985052563 -0.055878512617433
0.050948342095981 -0.054924771975611 -0.054708577836244
0.052047815623238 -0.053855415402706 -0.056008469534816
-0.056615521972188 -0.049051654177686 -0.054929029646241
-0.054963801741259 -0.050965104777621 -0.056347568697129
0.054535081532276 -0.051430615766539 -0.054554185649963
0.056296406442715 -0.049479531903189 -0.055886052935917
-0.060089875262701 -0.044791322528157 -0.056161404843113
0.058131884110228 -0.047218180631952 -0.056143154540769
0.060384885259560 -0.044435906259066 -0.054889969153022
-0.062048531557800 -0.041956009709164 -0.055919382866604
0.061620955146798 -0.042639603312666 -0.055211066464125
-0.064861765608935 -0.037522483063675 -0.056334127088396
-0.063660074789820 -0.039404035938477 -0.056820401745063
0.063281561656752 -0.040052960906429 -0.056420507984274
0.064578559644978 -0.037995868580938 -0.055488975329231
-0.066674949974219 -0.034157134079198 -0.056668945478682
0.066091840995758 -0.035371474801981 -0.056097944311978
-0.069029857222300 -0.029221838294442 -0.056420750263614
-0.067979859548896 -0.031430070504188 -0.054184263739383
0.068319265701967 -0.030717379143077 -0.055300962027221
-0.069712376917675 -0.027535159183327 -0.056402666441120
0.070076483507364 -0.026532774107000 -0.055133371152357
-0.071415180399325 -0.022530147717554 -0.055650994460951
0.071207784810759 -0.023188267706201 -0.055290590803807
-0.072802345502206 -0.017579095153049 -0.055631140056048
0.072547389963155 -0.018829342326821 -0.055061322245897
-0.073630150027629 -0.013681360019958 -0.055533916467304
0.073661120693191 -0.013590278089043 -0.055749831008776
-0.074131281386252 -0.011335708683614 -0.055196248623389
0.074153564560381 -0.011190821120139 -0.057214755173043
-0.074607444704771 -0.006256835798248 -0.056312549133506
-0.074968063190344 -0.001152571765427 -0.055486674377340
0.074964089066571 -0.001486798581460 -0.055552171615002
-0.074912289487176 0.001028646745703 -0.055615697560359
0.074906024079330 0.001029228620881 -0.055487613849595
-0.074735033884377 0.005772049457935 -0.056189213943978
0.074709758996939 0.006128765064890 -0.055856144814881
-0.074325325165895 0.009462608236019 -0.055642934708584
0.074216036824253 0.010116433816088 -0.056349255919363
-0.073659220394582 0.013711501225675 -0.056101263566791
0.073638245802538 0.013795002819565 -0.056485700385433
-0.072810011338233 0.017748405591241 -0.055076472354572
-0.072311972676777 0.019590274773834 -0.054624517193573
0.073058629239588 0.016794196343024 -0.055882067937990
-0.071703913554092 0.021801344406133 -0.055516740404688
0.071447083641776 0.022504286740092 -0.055444888800684
0.072083743632950 0.020277753551470 -0.055842191327369
-0.070367719998864 0.025838795316958 -0.055648975016685
0.070467701828982 0.025564196443290 -0.055649067185024
-0.069074020400709 0.029045611230260 -0.055375102644865
-0.068302272327830 0.030943021407923 -0.055790292638022
0.068985492866851 0.029169551780453 -0.055759828120519
-0.067083645050799 0.033463770293639 -0.055785023043731
