ply
format ascii 1.0
element vertex 870
property float x
property float y
property float z
end_header
-0.055542569637512 -0.072571509690203 0.628304493124659
0.055167239671767 -0.072251155831971 0.629499567924131
0.056059172595672 -0.072158444407583 0.626453697667379
-0.055319071853192 -0.064504404876307 0.628424589514552
-0.049731270064980 -0.063401396106576 0.628655600775097
-0.043514943588001 -0.063401394579267 0.628210769258982
-0.037128181900393 -0.063401392433243 0.628125484847233
-0.031260513864134 -0.063401390095937 0.628534762338188
-0.025552794162114 -0.063401388244286 0.627578090573068
-0.019721506383310 -0.063401386145166 0.628280231819776
-0.013799489549037 -0.063401383865975 0.628876004383843
-0.007066791627656 -0.063401382574621 0.628472728973986
-0.000981807857864 -0.063401380924910 0.627948590407584
0.005223754067104 -0.063401379150450 0.628134990073163
0.009869505289839 -0.063401377733403 0.627860181628938
0.015885158140994 -0.063401376021074 0.628421855096118
0.022277436365297 -0.063401374057745 0.628058406100675
0.028718990481140 -0.063401372101448 0.628034259973392
0.034875330090560 -0.063401369940533 0.628345843564825
0.041090072097402 -0.063401367378684 0.629259686823560
0.047050286844747 -0.063401364935278 0.628691202661819
0.055034294783402 -0.064620983917813 0.629298899744860
0.055928751832012 -0.064623324390590 0.626465793269953
-0.055758492783951 -0.059755468478030 0.627435429156622
0.055517606311075 -0.060369888615725 0.628334142873136
0.055870745920403 -0.059341457930347 0.627016216814674
-0.055552588548030 -0.054537560256724 0.628203877689199
0.055128145327545 -0.055500711953440 0.629787613875867
0.055954476819442 -0.055180100482587 0.626703726158237
-0.055301069629154 -0.047670002377369 0.629142563881123
0.055201310006277 -0.048895621399832 0.629514553592917
0.056314438735576 -0.050434960757813 0.625360334547863
-0.055362366887004 -0.043878943868767 0.628913804787038
0.055247479908266 -0.041717678842558 0.629342237709546
0.055985209824281 -0.042685337253904 0.626589014602285
-0.055405045228539 -0.035803327512911 0.628754537185520
0.055235318845093 -0.035771399970401 0.629387615781388
0.056038078376783 -0.036526506460073 0.626391700456014
-0.055314274264776 -0.030033070462872 0.629093304777685
0.055200791365416 -0.031686285917082 0.629516468091953
0.055930346676633 -0.029682567330960 0.626793749150111
-0.055400688350098 -0.024096833617462 0.628770811082697
0.055115232944963 -0.025644978711909 0.629835766601090
0.055862991410879 -0.027340306839825 0.627045117616091
-0.055770914464034 -0.018075315067658 0.627389120055092
0.055369909776857 -0.018573684805466 0.628885298394288
0.056110882434426 -0.018102779039297 0.626119970590774
-0.055726111087244 -0.012435803665511 0.627556334790040
0.055392880560626 -0.012546599714627 0.628799563540704
0.056168967115211 -0.012020451138188 0.625903189088244
-0.055568087435832 -0.005278474824388 0.628146093996581
0.055132112276971 -0.005272657933782 0.629772747478927
0.055993669580119 -0.005333835821089 0.626557395103471
-0.055548741030585 -0.000188870218332 0.628218301757022
0.055047263336440 0.000801284837564 0.630089398246016
0.055827534032552 0.001022907605378 0.627177408784658
-0.055634679103621 0.004760658345409 0.627897583499174
0.055059414580977 0.005359448594363 0.630044043759170
0.056007114001004 0.004602325896362 0.626507207101440
-0.055802229658214 0.011977996747067 0.627272286978716
0.055275367264957 0.011815114547596 0.629238094870518
0.055973706786181 0.011134407585045 0.626631875067690
-0.055723402570928 0.018315682398339 0.627566480579774
0.055262665144132 0.018672108561718 0.629285490476105
0.055986034582720 0.018455894442540 0.626585857778978
-0.056035406885803 0.026285086609979 0.630786724343166
0.055372136047383 0.026075111360857 0.630923646834156
0.056349261858983 0.026419718982591 0.630754961564418
-0.058459050219342 0.031286024034134 0.625677219195519
-0.056032584894486 0.029570107041089 0.628581937608036
0.054415897399125 0.030041683291145 0.628849718820562
0.057074783292415 0.029658948274873 0.628077382750433
-0.058452551722354 0.032887543547152 0.625609433185976
-0.056255642035859 0.033847080249589 0.627956395630458
0.055165601439166 0.033893862946651 0.629756069080837
0.056645844446004 0.033934439565512 0.627233117066303
-0.055122492107506 0.041610974690615 0.628361753068339
0.055013386280027 0.041536162820858 0.628838839878929
0.055868191639542 0.041026715104960 0.626100241387394
-0.054773145404877 0.049334709829837 0.628316176917606
0.054701415182934 0.049375632075182 0.628543779856784
0.055758129040977 0.047096440754268 0.625541302633354
-0.054023259344408 0.053218547283939 0.628018719900089
-0.051943218789614 0.055659720710346 0.630350770676317
0.053715779616490 0.053729417467814 0.628257576033404
-0.052757885014059 0.057191153951699 0.626320319106572
-0.049353846111667 0.059617548079793 0.628140071021643
-0.044250509610911 0.062016614044897 0.629179163680727
-0.039495443031440 0.062521282250139 0.631139904066480
-0.024203369471766 0.062338113562259 0.629748492352007
-0.019453593572590 0.062378925104926 0.629383160034357
-0.013835369161106 0.062439456688320 0.629443520848572
-0.006989755563344 0.062425128288496 0.629650241808265
-0.001989922375809 0.062499339525317 0.628703900188462
0.004990480427820 0.062360102767241 0.629508536289150
0.009427324348019 0.062333622577153 0.629709516686932
0.013734173140739 0.062471768005041 0.630629970072783
0.022320910464511 0.062443664073129 0.629772554293056
0.027103557541922 0.062432816652201 0.630087409483100
0.042168149980385 0.062348277963331 0.630112497424582
0.046933305058327 0.061104540357923 0.628422396812855
0.051086727479945 0.058288853636225 0.627892847200641
-0.042794723352100 0.062898847428653 0.627094577153753
-0.038703030411051 0.062857044942138 0.629293973173828
-0.031289245014645 0.062946813096783 0.628868833858678
-0.025378227984724 0.062833649571128 0.627309477430606
-0.018654695242822 0.063042768274402 0.626872214309371
-0.013954624025295 0.062849468439175 0.628769786826002
-0.007098406724595 0.062811970222427 0.629149519230716
-0.000878502673364 0.062986520520982 0.627427273496316
0.002683633096246 0.063038568524723 0.625920305054969
0.008451006915279 0.062753448067090 0.626520659565889
0.014433852727281 0.062955238397047 0.627995440776299
0.021330538739052 0.062916344764552 0.627813757067527
0.027601616617019 0.062940294346681 0.628222896600848
0.034404616820765 0.063022586344046 0.628308282615776
0.041575669774196 0.063028913474757 0.627276034840869
0.044477056660454 0.062799633295157 0.626242044933804
-0.053357182851994 -0.077132154572654 0.633939585630767
-0.052174171749817 -0.077135323795361 0.636880830229461
0.053227271273884 -0.077152297233895 0.634298240527276
-0.053559357886314 -0.072672606076099 0.633920479329517
-0.052286514474881 -0.072886357222085 0.637141146338294
0.053447456941295 -0.072069453076047 0.634256181359452
-0.053521815529890 -0.064470770818988 0.633810720328224
-0.051538903043970 -0.064272588790937 0.636175969542124
-0.043457400517460 -0.063401393492075 0.634308709027894
-0.037097579812160 -0.063401392190641 0.634513520364824
-0.031341597686308 -0.063401390213658 0.633594380289330
-0.025323775376342 -0.063401387683117 0.634585693713212
-0.019119537976421 -0.063401385416788 0.634312250626965
-0.013452407052982 -0.063401382894979 0.634453161589893
-0.007416227658965 -0.063401381122369 0.634191622626979
-0.001612232504060 -0.063401379618999 0.634419100784053
0.004513254946583 -0.063401378119743 0.633656264465177
0.009997328189831 -0.063401376461894 0.634305969917577
0.016158885800566 -0.063401374659062 0.634689807917113
0.022839323913822 -0.063401372853057 0.634306297081268
0.028122847044164 -0.063401371299234 0.634787791390490
0.034483017513782 -0.063401369484156 0.634392987717780
0.041182762722449 -0.063401367533034 0.633935349409715
0.046035847120946 -0.063401366137580 0.633660761786319
0.053306837664684 -0.064596182797439 0.634202851257968
-0.053944114065538 -0.059687574478437 0.633308400037984
-0.052336585191036 -0.061105911519747 0.636769281640633
0.053653677485972 -0.060803355626806 0.633906575912512
-0.053207851163156 -0.053828350056096 0.634900836558020
-0.052273076509409 -0.054381115937077 0.636905482223538
0.052992795190691 -0.054916152538886 0.635361848357089
-0.053251765443491 -0.047424509713222 0.634806665866755
-0.052287264264382 -0.049254352984447 0.636875059860573
0.053491583424203 -0.047684385209877 0.634250882504261
-0.054075919857494 -0.042644815752429 0.632966897273017
-0.052193308563236 -0.040467952368812 0.637076556238318
0.053311396407389 -0.042271395679789 0.634655648793381
-0.053726739728834 -0.037156323721744 0.633760341084014
-0.052226587690675 -0.036991083005841 0.637005190820354
0.053133645929905 -0.035386889788336 0.635059776458092
-0.053385207574643 -0.030944254451329 0.634520507703124
0.053023792939930 -0.029813509468270 0.635295354791654
-0.053459270029315 -0.025110840079921 0.634330853559840
0.052887196340072 -0.024572318916859 0.635588285450532
-0.053232782310012 -0.016809472769873 0.634847397188527
0.053183345252528 -0.018566273421263 0.634953183130537
-0.053646378802265 -0.012767286090903 0.633949511223413
-0.052205893159298 -0.011161597434968 0.637049589234566
0.053410868618772 -0.011751847101500 0.634431321631857
-0.053484461970782 -0.005907841315769 0.634307671988632
0.053811059989486 -0.006029378899238 0.633568278216782
-0.053843067335708 -0.000011845756519 0.633538638547972
0.053480341018189 -0.000447691982437 0.634273660914166
-0.053379013623640 0.005794975725084 0.634513935745166
-0.052317988431124 0.007382680135021 0.636809211880292
0.053066708664449 0.005214106676775 0.635117886370557
-0.052915148131739 0.013219630039928 0.635528592858267
-0.052304206437069 0.013977930080496 0.636838772551374
0.053626300847003 0.011501940242717 0.633990448232249
-0.053679467137667 0.016615326782364 0.633853213718583
-0.052190147093142 0.019720032671061 0.637083379779371
0.053324142167067 0.019112387190601 0.634650556409892
-0.054229586911296 0.025599748669159 0.634623519629578
-0.051198898405839 0.026219360419709 0.636116408929173
0.053735448610924 0.025616102787366 0.635082489562432
0.056049799607050 0.025849897713985 0.632849177685144
-0.053876188756503 0.028457775512942 0.633985331179333
-0.051738373096921 0.027366754722526 0.635097981951231
0.053345648969499 0.028274373427361 0.634390207563711
0.056160645959892 0.029489336753782 0.633016377008924
-0.053827162570313 0.034859116935078 0.633002358163807
-0.052119536356046 0.035303931150826 0.636748477691434
0.053672087200276 0.034486096851271 0.633354290536305
-0.053120867687890 0.041769125085220 0.633862751645800
-0.052031880881799 0.042030873181191 0.636303784479377
0.052650440754459 0.041876201524269 0.634915355225564
-0.053029792109019 0.048669154007409 0.633078738457919
-0.051835031108821 0.048599517224759 0.635867286675493
0.052376791911582 0.048615342622407 0.634567844705537
-0.052755769537290 0.051822770672117 0.632267111346210
-0.050542494564608 0.053945645651268 0.634805272242050
0.048955036705590 0.055509603218039 0.636036437274870
0.051203348970747 0.053305076327955 0.634188065341541
-0.047989352786582 0.057987592003358 0.633816910771813
-0.043339733490640 0.060618473472839 0.634229303855185
-0.038235654193365 0.061837611397006 0.634878888912712
-0.029873230304988 0.062019416820109 0.635890094693071
-0.025664067229567 0.061992121472354 0.634823437235085
-0.019732557281144 0.061838498733033 0.634203845235924
-0.013572279902357 0.061888128745639 0.634052905839403
-0.007593477454075 0.061782866461651 0.636156601060486
-0.001634873462223 0.061760363403248 0.635957525064192
0.005136621407702 0.061841600683322 0.634680448477091
0.012889542740363 0.061798963504365 0.636036246584701
0.014115630861203 0.061921495467080 0.635866067134799
0.022907477112013 0.061796265646262 0.636213797211201
0.026700147233363 0.062120909248680 0.634067134351374
0.036182424279845 0.061944929259384 0.635389240545066
0.040893796618639 0.061397278170166 0.634458655603580
0.046382693291377 0.058985031445257 0.634163873798433
0.050051694562430 0.057006633000171 0.632075150811650
-0.036883321837675 0.062610488278575 0.631399011406909
-0.031453293255155 0.062606269891598 0.631459351935276
-0.028287888705660 0.062616289547493 0.631372718752254
0.029568849055392 0.062606397116096 0.631453226817917
0.031892824793423 0.062610972442479 0.631432144095233
-0.050277969020320 -0.077138627151596 0.640294343229167
0.049027697060921 -0.077115900181915 0.642427159846159
0.050783312058064 -0.077131746977311 0.639519694581488
-0.050456354139192 -0.072211535847781 0.640353757307807
0.049173613252451 -0.072149887570164 0.642550722014228
0.050938533785088 -0.072317086511891 0.639597674983144
-0.050320605093694 -0.064477160325395 0.640279175795197
-0.043832339112015 -0.063401392290304 0.640706145772608
-0.037636624756718 -0.063401392025081 0.640630048579856
-0.031768859014482 -0.063401389824077 0.640087869476711
-0.025395970747822 -0.063401387762702 0.640390109948171
-0.019817734845754 -0.063401385357668 0.640149149476447
-0.013349416030691 -0.063401383416730 0.639809599078177
-0.007184924872393 -0.063401380152954 0.640457109773003
-0.001526065305290 -0.063401377921110 0.640162601619796
0.004271163125573 -0.063401376525465 0.640250679352848
0.010057451728852 -0.063401375041024 0.640131384348979
0.017112875927651 -0.063401373145279 0.640800928903462
0.022426986185065 -0.063401371941855 0.639970364104749
0.028633520582410 -0.063401370021734 0.640470869067541
0.034971613338007 -0.063401368322839 0.640062921987843
0.039965006298484 -0.063401366805003 0.640756081593917
0.048989355198881 -0.064592833785873 0.642359217221067
0.050801876336101 -0.064601257784225 0.639594147723619
-0.050237582738080 -0.060199538170589 0.641096173550316
0.049277061296995 -0.060120745482377 0.642648547899323
0.050874243848089 -0.059792197441724 0.639904096716240
-0.050000692032763 -0.054594723318784 0.641387859660475
0.049232606863521 -0.054728771445591 0.642712033126139
0.050700480929557 -0.054353991595978 0.640157749525814
-0.050857507000139 -0.048697606936896 0.639830860196755
0.048944841886611 -0.049812547863916 0.643123002927191
0.050522732068349 -0.047161397296010 0.640612060256031
-0.050477174769400 -0.042154704644523 0.640649104731899
0.048829337244303 -0.044622485641630 0.643287958730203
0.050591836131830 -0.042203035239455 0.640478630141289
-0.050844716067135 -0.036588069954993 0.639833795030364
0.049048438596395 -0.036193732085113 0.642975044603097
0.050761321980152 -0.035212248255713 0.640115250153133
-0.050528350548022 -0.028871739469812 0.640455730568936
0.049087040404618 -0.031260476056658 0.642919912932404
0.050559826893251 -0.028488270251231 0.640579386185588
-0.050934794349949 -0.025486452940104 0.639614189684749
0.050748537089055 -0.024534453053920 0.640150252769233
-0.050568836285339 -0.018441090475255 0.640386653665266
0.049266941626003 -0.018010776096989 0.642662980134457
0.050439245285343 -0.018211657454654 0.640667847964306
-0.050658314808089 -0.012908487656614 0.640210385573589
0.049129362835240 -0.013186951773867 0.642859461206792
0.051243888102211 -0.012944385350274 0.639112389526099
-0.050270282650662 -0.006689792057281 0.640924421117964
0.050706683175030 -0.006139936725114 0.640197490493467
-0.050673164755346 0.000362125219623 0.640111240739941
0.048871633857024 0.001635702182290 0.643227530118980
0.050545160230834 -0.000477242505796 0.640529356588438
-0.050818626606556 0.005526446115532 0.639888086244754
0.049180686719282 0.005160020710863 0.642786153902711
0.051134463435769 0.005479216249261 0.639347039906375
-0.050109986851072 0.010457329009224 0.641132105125383
0.049224701930225 0.010783548127435 0.642723290731332
0.050453728224363 0.011305698767629 0.640665275840514
-0.050578454396732 0.017319283241175 0.640407471789068
0.049148674590310 0.017952198446464 0.642831865821695
0.050875608023363 0.018036020418968 0.639902152225858
-0.053140394220556 0.023978271663638 0.639049724110005
-0.050351830774678 0.024211954440629 0.640675115791407
0.048752002753047 0.024350955061701 0.641407696382645
0.051521598425404 0.024235298317466 0.640180902911341
-0.053291299961123 0.028020385991526 0.638738462652373
-0.050902882716695 0.028341620095225 0.640594946059637
0.049265408625392 0.028382081244421 0.642672185154959
0.051803137214020 0.028313014915175 0.639835073331802
-0.050219051301616 0.035502977702245 0.640225745697987
0.049122248514115 0.035667661009814 0.642126554920266
0.050585063297498 0.034964211403231 0.639649030084404
-0.049829237250671 0.041563425354670 0.640388523442339
0.048869774995864 0.041371943888862 0.642068571112215
0.050569163038190 0.041580332814813 0.639056580849885
-0.049142939333954 0.048180979578128 0.640610998371371
0.048552841577877 0.048223160911411 0.641560075002676
0.050408378646352 0.047959412415639 0.638608233853896
-0.048069661497793 0.053134684185014 0.639454749614438
-0.044798108164418 0.055180990074176 0.641942607884428
0.043089176344626 0.056191856288648 0.642869192012143
0.046872408304345 0.053905922720323 0.640412929756878
0.050038555068218 0.051387285271505 0.637898292890525
-0.046611325150907 0.056862451005129 0.637598084170979
-0.042449626734565 0.058198696731980 0.640380324019155
-0.037503810097914 0.059989337031856 0.641270550448743
-0.032235042627938 0.061109022069370 0.640892651968041
-0.024693027657528 0.061447269888709 0.640220248629673
-0.020354449649060 0.061340662264523 0.641056462611850
-0.013154003774867 0.061425820064729 0.640401285647588
-0.007777580534405 0.061433743623192 0.640336667782512
-0.000641558527704 0.061418735375194 0.640445084969084
0.004685849857078 0.061404542224890 0.640548229125702
0.010683481295428 0.061460897758455 0.640124761928717
0.017168016410852 0.061400471244001 0.640615496486083
0.022229640724191 0.061478639899901 0.640012472176823
0.029200707064425 0.061414205138728 0.640105771451106
0.035412348157463 0.060470037872504 0.641518807046410
0.040204720067842 0.059005966006361 0.641083747286625
0.044787572911079 0.057528206978592 0.638873858960754
-0.047551141109221 -0.077142179659454 0.644835855131197
-0.045250208643069 -0.077138101815994 0.647808788735167
0.046323487505140 -0.077156260167738 0.646440966999188
-0.047781177093015 -0.072798151181245 0.644813293215332
-0.045212245506174 -0.072066987293959 0.648151471264853
0.046461732371269 -0.072597448138101 0.646517370028953
-0.047551481103672 -0.064610103625913 0.644880047741795
-0.045077152691625 -0.064538250283987 0.647785880287090
-0.037836179259646 -0.063401390589640 0.646082371566978
-0.031611651953899 -0.063401389835411 0.646633791981419
-0.025178072567571 -0.063401387033784 0.646363686502703
-0.019808883229735 -0.063401385287619 0.646625460375655
-0.013271564675873 -0.063401382505103 0.646341948468609
-0.007095612716791 -0.063401380855186 0.645629477879204
-0.001497699203821 -0.063401377974853 0.647031345783923
0.003938724317654 -0.063401375444551 0.646307052962634
0.010162169647252 -0.063401373366860 0.645972142626145
0.016736026886618 -0.063401371677282 0.646617992982130
0.022565919516850 -0.063401370422158 0.645660148258863
0.029353021039964 -0.063401368677429 0.645884620869497
0.035597336147411 -0.063401366939938 0.645996335134141
0.039552757671621 -0.063401365700669 0.646939602774527
0.046399299528697 -0.064622346488597 0.646407277118016
-0.047901734226517 -0.062170599922612 0.644612832800046
-0.045080734569968 -0.059564334018867 0.648641643697999
0.046051172217820 -0.060741394783933 0.647255606400336
-0.047808360292397 -0.054418039145700 0.644746188549445
-0.045395174714162 -0.055904896705846 0.648192577876579
0.046410178499388 -0.053441462698716 0.646742887787211
-0.047341776226612 -0.048426114210311 0.645412543348439
-0.045532717364941 -0.049337914140210 0.647996149556089
0.046858155961178 -0.047729093311765 0.646103105562552
-0.048099381311703 -0.041799111376586 0.644330573172328
-0.045597165737272 -0.041556481185644 0.647904111298512
0.047169205057917 -0.042200246392136 0.645658877865513
-0.047637055303935 -0.035898276980995 0.644990846782684
-0.045009096571138 -0.037642666205929 0.648743963495247
0.046923959377800 -0.036437244416147 0.646009123251162
-0.048444010541699 -0.028746159213732 0.643838397461520
-0.044975820402228 -0.029477286890841 0.648791490474561
0.047287612349406 -0.030459523485021 0.645489768997871
-0.047399221528404 -0.024861079191438 0.645330514368953
-0.045463083990263 -0.024923306945008 0.648095607509683
0.046644354281936 -0.025265031915101 0.646408436552839
-0.047882923881736 -0.019133864930499 0.644639717872745
-0.045392208886720 -0.019875115485092 0.648196829975302
0.046454038919390 -0.018224673744891 0.646680232476905
-0.047889177759636 -0.012992304715579 0.644630789238202
-0.045578728476187 -0.011118397545460 0.647930456128470
0.046496458372822 -0.013164676970155 0.646619648801738
-0.047206058682256 -0.005693695604502 0.645606388562369
-0.045862217283230 -0.007089393631097 0.647525593676727
0.046577912980412 -0.006085278293810 0.646503315909897
-0.047999975107808 -0.000567611019230 0.644472559911763
-0.045091454024745 -0.000665013560223 0.648626361320474
0.046520235062482 0.000080263472202 0.646585685828473
-0.047751955532208 0.004426791126588 0.644826771053433
-0.045195439296798 0.004065519730718 0.648477856974964
0.046796615665513 0.005194331682841 0.646190969814413
-0.047888212147159 0.012556510031208 0.644632179942515
-0.045485165844661 0.011945941467018 0.648064087822640
0.046190204223054 0.011838192040769 0.647057014435249
-0.048076332638574 0.019755195142565 0.646777869780354
-0.045126532109052 0.019366817776798 0.648667718308328
0.043010831888708 0.020287261048976 0.648878509236468
0.047481480299768 0.019560428625578 0.647288699336171
0.049866786591704 0.020465114924810 0.644842347548961
-0.048474663659707 0.023377335827807 0.645435937682505
-0.045050732339754 0.022808071044169 0.647483493714820
0.043176804529925 0.021347947183483 0.648691083707567
0.046741465058835 0.023341783584526 0.646517545415467
0.050451985909141 0.023242515337591 0.644425497707700
-0.047965723382622 0.027628618235085 0.644676302397041
-0.045155875665650 0.029393399120155 0.648075160145214
0.047666604903799 0.027650001688111 0.645075693921627
0.049873833294855 0.026761939332750 0.643528377568903
-0.047211406420183 0.035776531892853 0.644908671652230
-0.045336096114230 0.036047263850660 0.647343970998892
0.046225481247592 0.035226647276366 0.646248405307200
-0.047132924558565 0.041631305699885 0.644613920359919
-0.045176468203932 0.041724299676330 0.647150837358676
0.043455259893521 0.042695653014857 0.649165580635182
0.045905760575531 0.041953526395568 0.646190236116442
-0.046952218136575 0.047476605877349 0.644233614201348
-0.042582266144808 0.048816962236007 0.647947002499176
-0.036688426725121 0.049618562842032 0.647111380096209
-0.033430718879160 0.049453640705743 0.647553962981490
0.035174076241379 0.049552391850215 0.647156708003108
0.040495411526190 0.049220129272100 0.647837339978565
0.044687572848625 0.048414090834976 0.646802276635127
-0.046528666350643 0.051081282891245 0.643399959239055
-0.042280185370963 0.053153403387962 0.646114894540014
-0.036949611598445 0.052261626599772 0.646769631300277
-0.032851565103346 0.053913905600530 0.647443072947576
0.035252464519841 0.051927340917288 0.647381829128343
0.040713785592684 0.053733251824204 0.646078962010858
0.044520440532611 0.052357830920708 0.644909611278979
-0.040842500780021 0.056934018614713 0.644132030115736
-0.036831406375691 0.058067568633875 0.644251887863429
-0.032253680214716 0.058610829155635 0.646440369507175
-0.025859327729328 0.060154088004857 0.647203694335134
-0.020266549126256 0.060402984180930 0.647574542266404
-0.013776810686229 0.060575671717458 0.646834766281640
-0.007671430989026 0.060648896662029 0.646320660595463
-0.001317776531529 0.060618843394497 0.646544089645530
0.005107830601493 0.060616832548763 0.646562013806666
0.010780739971968 0.060641656458971 0.646385972442507
0.016732669338432 0.060585260606372 0.646691969588387
0.022930127802711 0.060356752214545 0.647224897590321
0.030194840644728 0.059345273233317 0.647270861710684
0.033866254981739 0.058392480935328 0.645454079275269
0.039006243170524 0.057489120242051 0.644252967954297
-0.042334161076365 -0.077125650817751 0.651307376812854
-0.039257626037117 -0.077145994998994 0.654297978268964
0.041005846238203 -0.077148942122935 0.652600905770053
0.043850699619905 -0.077105948416479 0.649574509665747
-0.042330457073165 -0.072336580779115 0.651550300342161
-0.039457040812674 -0.071951922603395 0.654369810510124
0.041277486893552 -0.072452178858163 0.652593794949016
0.043961315536926 -0.072474035751011 0.649670728830444
-0.042377942248438 -0.064581785894229 0.651328125886004
-0.039177574540583 -0.064488365813240 0.654160974182522
-0.031743116249662 -0.063401389191879 0.652686151929371
-0.025373295142726 -0.063401386918982 0.652625300815315
-0.019370065013317 -0.063401384729157 0.652546973977806
-0.014162866294626 -0.063401383185344 0.652316370400371
-0.007762533935017 -0.063401379850068 0.652238202324317
-0.001250582033176 -0.063401378536878 0.652476703442340
0.005115063240511 -0.063401375886717 0.653288461040336
0.011260681301191 -0.063401372250824 0.653108958037591
0.016607363606017 -0.063401370045598 0.652414308924242
0.022668713995874 -0.063401368482558 0.652345890273839
0.028806901771889 -0.063401367072058 0.652308580682431
0.034165167352904 -0.063401365870281 0.651715293282074
0.040979930568516 -0.064620499028651 0.652696099280507
0.044005290686915 -0.064486265903893 0.649628465230959
-0.042183821218224 -0.061341921246196 0.651817154894826
-0.039638896904469 -0.061560635954608 0.654362080466258
0.040847379537342 -0.060176985723532 0.653153521064001
0.043777060910491 -0.063135553175924 0.650223842179828
-0.042649763597689 -0.053222734451815 0.651351214815418
-0.039821696370417 -0.055197140515502 0.654179282898048
0.041860890132481 -0.053993082345941 0.652140008988191
0.044127089279845 -0.057242351905324 0.649873812109394
-0.042549452295459 -0.047885855904030 0.651443778717034
-0.039144271756925 -0.049377726009825 0.654856709687144
0.040622135804973 -0.048974965707761 0.653378761035436
0.043909268306339 -0.048320960213387 0.650091630145809
-0.042491735842950 -0.042213315678789 0.651509246100568
-0.039346279195539 -0.043125984653591 0.654654704105366
0.041878276147176 -0.042453470144627 0.652122619242094
0.044189008020407 -0.041657944388889 0.649811888528574
-0.043016350093798 -0.038023649676433 0.650984632888510
-0.039708059246413 -0.036216394780908 0.654292926062938
0.041223665846439 -0.036402396901138 0.652777227259490
0.044515025033539 -0.036264782012484 0.649449446308306
-0.042492430798909 -0.030068613231818 0.651508554947870
-0.039550183599017 -0.031657437561451 0.654450803258899
0.040507045573493 -0.029543287793417 0.653493844916748
0.044016056055744 -0.032277715664237 0.649984837441895
-0.042548554263035 -0.024115603816561 0.651452433318931
-0.039650785853540 -0.023712184256189 0.654350203510730
0.041022782110327 -0.023896270413381 0.652978106857722
0.044205723171908 -0.024782230699723 0.649794713415990
-0.042106957409852 -0.018121522842539 0.651894032300808
-0.039637914277836 -0.017925978610450 0.654363076976968
0.041498541844135 -0.018608022161925 0.652502345736113
0.043821932276705 -0.017581027189138 0.650178956490625
-0.042492258994497 -0.013051601878276 0.651508732109456
-0.039390257455447 -0.011656248727768 0.654610736002509
0.040850020536671 -0.011587797595897 0.653150864429020
0.044414488984079 -0.011673371376472 0.649569685331967
-0.042735136187204 -0.005886896934729 0.651260411801311
-0.038725271494827 -0.008564067543609 0.655275723408882
0.040442184152196 -0.007474737383712 0.653558699231324
0.044013173809625 -0.007013198797330 0.649987711773488
-0.042838426156074 -0.000370181843534 0.651159060704163
-0.039929762946565 0.000272834561102 0.654071234034471
0.041077226862960 -0.000459583411188 0.652923654740341
0.044251240275553 0.000876596415177 0.649736918438324
-0.041755933643005 0.005970247266858 0.652245063988377
-0.039646456985411 0.005748279403932 0.654354541964015
0.041350944044865 0.005900516587255 0.652649935746185
0.044530466025179 0.005394335503503 0.649427375599920
-0.042059365748141 0.012167670713171 0.651941633704290
-0.039423419110399 0.013756885537340 0.654577582591475
0.041326126358855 0.012070791849748 0.652674751483426
0.043874112626652 0.011564388614838 0.650126767046832
-0.046688291562644 0.018891299824904 0.649727597828158
-0.042724182114827 0.018532144196972 0.652212407322078
-0.038988086310194 0.018933117804850 0.653958247977683
0.037066761610010 0.018399588036866 0.654868217044203
0.040994100425218 0.018808945479490 0.653144161343407
0.045096848454137 0.018405975830367 0.650919939900684
-0.046780172612555 0.022452126933847 0.649797505501317
-0.043147339622644 0.022453680764389 0.651644399805560
-0.039590989114771 0.022841310846035 0.654610732633151
0.041782644077899 0.022434939552938 0.652499636575658
0.045060345625180 0.022608798301106 0.650564032465385
-0.042299020434116 0.029801564338869 0.651282323038529
-0.039352790232211 0.029448211202313 0.654223964608304
0.040665358713819 0.029507980688662 0.652919472103227
0.043893652072315 0.029041391646623 0.649608261115504
-0.042412911469280 0.035730578134116 0.650787394955063
-0.039054466519911 0.034932968228223 0.654187306684520
0.040488200162737 0.035300616654815 0.652730491630175
0.043814626038259 0.033037367015053 0.649391040715593
-0.042237512653603 0.041912909916613 0.650588889757842
-0.038558882978859 0.042981710809553 0.654143070081630
0.037357756335118 0.043881054699737 0.655164377396587
0.040223313950546 0.042186207394106 0.652558529525940
-0.041586294194246 0.047230548198685 0.650483744325756
-0.036247192995199 0.049209609907116 0.651986360344320
-0.033666505380164 0.049416856557979 0.650137562419000
0.035330093863410 0.049357630126638 0.651809191672266
0.039175319327774 0.048545886208059 0.650830307590357
-0.035983024002451 0.050741036856765 0.650086052939969
-0.032752453042235 0.054012614309441 0.651977481614448
-0.027165520959342 0.056073657695473 0.654677221295926
0.025095538575174 0.056468436056583 0.655194336896450
0.030592751767849 0.055821829889277 0.653187053235703
0.033610558637269 0.053092771507594 0.651450075571550
-0.030648273498342 0.057443204041493 0.650605396325697
-0.025322560932747 0.058352866756944 0.651920902484570
-0.019591566531041 0.058991971969903 0.652670647666382
-0.013454297436873 0.059346144398331 0.653132621394834
-0.007578196769254 0.059452387385875 0.653522317001186
-0.001106858826454 0.059505787297421 0.653604626051011
0.004635864813984 0.059496153818843 0.653505256692571
0.010790974351081 0.059451272859645 0.653153154497385
0.016778170147138 0.059224459843757 0.652774994277027
0.022602496150596 0.058703649642964 0.652278275632037
0.029804154773496 0.057757555583401 0.650843485383983
0.031838210153902 0.056905011554048 0.649856554384895
-0.036295458453595 -0.077147360024998 0.656960915527907
-0.032289759371162 -0.077156386741263 0.659841773808952
0.030811917599609 -0.077150648231378 0.660783302138641
0.034709855674878 -0.077135178235406 0.658133568931471
0.037920765754327 -0.077122015766933 0.655530250136192
-0.036803153255708 -0.072321641162393 0.656778988247300
-0.032293209970285 -0.072579239794520 0.660075532718366
0.031026448639250 -0.072368716099711 0.660893014743442
0.034594218386498 -0.072268962929045 0.658441361124870
0.038025090722873 -0.072798838711184 0.655664824406061
-0.036451517078566 -0.064603881575169 0.656921342485274
-0.032352998427176 -0.064596026122240 0.659758520860065
-0.025244432526110 -0.063401387403795 0.658383212854335
-0.018789484508944 -0.063401383618106 0.658186784723454
-0.013003364875018 -0.063401382651954 0.658689357604253
-0.007318657373819 -0.063401380338593 0.658379064470425
-0.001709426539701 -0.063401377053470 0.658373264561799
0.005012922619097 -0.063401375859108 0.658004978157661
0.010380366339682 -0.063401374094895 0.658602142093063
0.016682142303708 -0.063401370290052 0.658160147830913
0.022867749714823 -0.063401367164467 0.657290204449089
0.030795639881707 -0.064557668949226 0.660724430784769
0.034689254988413 -0.064618243380555 0.658222067547510
0.037996400230300 -0.064520564055562 0.655629887178253
-0.037028256515867 -0.060263428541005 0.656794187216100
-0.032303464140702 -0.061357380778142 0.660205215145552
0.030868682753758 -0.060744163961177 0.661218883783220
0.034841667005161 -0.060629230988320 0.658437364093587
0.038050902062181 -0.062485603010398 0.655949997832797
-0.036564230657395 -0.053659677421536 0.657199036901353
-0.032813875054349 -0.054759330341685 0.659847823270094
0.031245902818049 -0.056061417910570 0.660970752327765
0.034535509569441 -0.054638699715617 0.658672207178234
-0.036815202734186 -0.048806114185742 0.657010022066002
-0.031744386105001 -0.048401011956906 0.660596688690307
0.031166729756420 -0.048535009694759 0.661051907341309
0.034546745048036 -0.047633192291818 0.658683843346038
0.037943359560758 -0.049441021945671 0.656057536035312
-0.036070587035139 -0.042596222276351 0.657527446680326
-0.031843660505377 -0.042351046977442 0.660527177456890
0.035613869123324 -0.041488611768598 0.657918203440364
0.038489843796097 -0.040519100958993 0.655511049182815
-0.036122737927621 -0.036555753178181 0.657528047355590
-0.032934333048217 -0.034544647706472 0.659763482460825
0.031300009581730 -0.037086608021519 0.660997702609234
0.035310490734469 -0.037188242953193 0.658162413238430
0.038579320081966 -0.033459158621727 0.655421570647263
-0.036326442496737 -0.030874928768951 0.657374757790311
-0.032425148906603 -0.029782228521410 0.660122674934871
0.031222004405053 -0.029138305972046 0.661079481457029
0.034706971143483 -0.029954958084816 0.658599465813410
0.037939698622967 -0.032813689790795 0.656061191563007
-0.035780520843152 -0.024031269802117 0.657830252899507
-0.032445284612643 -0.024884407310968 0.660126318723117
0.031058008865152 -0.022613987842012 0.661207185894130
0.035970580522735 -0.024399669646270 0.657701965161980
0.037970133794311 -0.024954414433992 0.656030753851222
-0.036359363247850 -0.017925812293551 0.657375168934253
-0.032052444218334 -0.018238875870873 0.660392015468835
0.031478495880875 -0.018773503976091 0.660933228482590
0.035371931281407 -0.018159671646088 0.658145757459752
0.038142743404352 -0.019986591390813 0.655858142715300
-0.036137446172674 -0.012657072126041 0.657579429152476
-0.032770801973114 -0.012186485594962 0.659945585231320
0.031205897047887 -0.011627317575379 0.661112968030917
0.034563665522062 -0.012175316843151 0.658748999247505
0.037682797625668 -0.010250200263482 0.656318085087455
-0.036419989804288 -0.006832577133885 0.657348453015094
-0.032469735820044 -0.006978632541976 0.660163316369971
0.031514645728861 -0.007390581918021 0.660916271791206
0.035319226088314 -0.006211285093309 0.658208318603465
0.037942953263516 -0.006290353484321 0.656057928297201
-0.036464088752801 -0.000938043698674 0.657314357961675
-0.032842583307837 -0.000563318176921 0.659961284720957
0.031350544029244 -0.002741821827991 0.661020815497821
0.035062515005324 -0.000796988012104 0.658392591357513
-0.036025141733797 0.004920905090900 0.657675749816288
-0.032604705509307 0.005691922531123 0.660154665658716
0.031353885909306 0.005988137471261 0.661018684610180
0.034348266691699 0.006059583753429 0.658924438655187
0.038113444536148 0.005723509177506 0.655887433212690
-0.035695432762888 0.014135829557952 0.659610192881910
-0.033114403624824 0.013744229984913 0.660556264766023
0.031457937298709 0.013276476337909 0.661178486817120
0.034711713077954 0.013948867266462 0.660041637124839
0.037983641856400 0.012618855359116 0.656979516880952
-0.041039622888003 0.017758048402211 0.655935071787151
-0.037238582950870 0.017372284015670 0.657630495282873
-0.031908962180199 0.017313853831928 0.659816241322733
-0.028103002687479 0.015548396163144 0.661200165574062
0.030070367641356 0.016512908378891 0.660364895061073
0.034836097819040 0.017691432483217 0.658549766410873
0.039227507192764 0.017389951754301 0.656803558655832
-0.040826630699253 0.021030008634213 0.655709822449480
-0.037209007911880 0.021661735296683 0.656956857407245
-0.032878139868092 0.021715219220287 0.659749718288064
0.030924155402970 0.023750468185630 0.660939185019889
0.035594299272775 0.021487333947728 0.657950470074520
0.038934171483816 0.021541334532814 0.656115234317029
-0.035869998861838 0.029539550544776 0.657134526874322
-0.031992348753745 0.029727544953338 0.659907508173408
0.030465589897635 0.029341504295924 0.660933307188967
0.034321686527198 0.029832410560264 0.658265690882409
0.037835774936835 0.027959805415390 0.655620825277209
-0.035786176860434 0.035146786296978 0.656876919240413
-0.031732667389505 0.035797203405731 0.659751820878563
0.030206522863448 0.035684073883887 0.660745186288452
0.034517173777244 0.035719770515684 0.657789294353343
0.037696888070601 0.034853934855267 0.655376932927416
-0.035744203832242 0.043355169617496 0.656441165362847
-0.031274409418954 0.043164095552990 0.659628052823203
-0.028340416464637 0.044411384380693 0.661291524198559
0.029885957599369 0.043319878111086 0.660504207753137
0.034221385302322 0.043055118202036 0.657608061661924
-0.035142180812942 0.048148197477696 0.655813368946599
-0.032102851197964 0.048049319471752 0.657906260644814
-0.026950365991514 0.048762081883952 0.660608866267856
0.024992567997436 0.050066674625721 0.660983027917863
0.029073325795525 0.047708366722079 0.659880598126014
0.034587997234171 0.048161836777210 0.656217404450043
-0.031654394248998 0.051775221959976 0.656201270932309
-0.025225830813523 0.053625640395991 0.658086144173375
-0.019575492805739 0.054605384180911 0.659397103215209
-0.013540575582779 0.055600046231995 0.660080916437755
-0.007502833902681 0.056110163456995 0.660504832509333
-0.001439027411294 0.056212406891444 0.660800061158234
0.004942591790408 0.056136649929713 0.660707724448212
0.010890426513080 0.055860724210299 0.660287567218052
0.016793745324401 0.055250102814051 0.659655179354935
0.023007497929087 0.053943845029451 0.658751186210499
0.028432776460906 0.052723045811037 0.657272561504609
0.033177462166906 0.051378852685678 0.655626886803627
-0.023027676134008 0.056825802315805 0.655680061867365
-0.018852329083615 0.057263668231362 0.656362214767939
-0.013346452506215 0.057658509434873 0.657122317833245
-0.007220511136259 0.057952703036762 0.657510132697631
-0.001240642185606 0.057961688501894 0.657846020873208
0.004739777172383 0.057948762359698 0.657712145740804
0.010621906382276 0.057852660488133 0.657230047558399
0.016179600861879 0.057501374954656 0.656751490127371
0.021589163776986 0.057017900458276 0.655872810488331
-0.029318427674495 -0.077160661261915 0.661854663081610
-0.025382171236972 -0.077141440307670 0.663837757395526
-0.019701334873621 -0.077141120868497 0.666274255407826
-0.016250291230687 -0.077140205893342 0.667285742249884
0.018180252256717 -0.077123118573406 0.666865818070332
0.022713913847187 -0.077136457918047 0.665065897958768
0.027691512151184 -0.077152623977335 0.662715424022817
-0.029428619880927 -0.072259092023705 0.661985005012467
-0.025118223244657 -0.072373989283115 0.664184823567158
-0.019844059185728 -0.072448588881240 0.666427136051384
0.018401905547968 -0.072182754862221 0.667010437863188
0.022761036382450 -0.072457592586996 0.665249719031693
0.028173460549713 -0.072401552735544 0.662648282252582
-0.029387582828311 -0.064557921762146 0.661926556173354
-0.025424397724213 -0.064611904726735 0.663887403884536
-0.019726519683713 -0.064612348311158 0.666309977503320
-0.014107766155387 -0.063678201942965 0.665510837771391
-0.007598681294040 -0.063401380633761 0.664525519278749
-0.001867748217759 -0.063401378255641 0.664611018336993
0.004812255453921 -0.063401374151831 0.663916497245494
0.010740143340804 -0.063401372878706 0.664900950735641
0.018166356152533 -0.064624137787422 0.666828826998754
0.022633447698506 -0.064600109894567 0.665162124986968
0.027936236880059 -0.064594916668504 0.662665091719917
-0.029636320239273 -0.060236004838467 0.662067762015290
-0.025601452829865 -0.061312779607639 0.664103193330836
-0.020732144328526 -0.060493093942305 0.666366514901981
0.018417002431058 -0.059872361513757 0.667182439321434
0.021670368280025 -0.060488173485008 0.665937649766204
0.028022221040619 -0.060365048566527 0.662952234251039
-0.029352995943665 -0.054768705083592 0.662263461253683
-0.024841414421983 -0.054011528150493 0.664458019452922
-0.019708507647672 -0.054311132428721 0.666761487075192
0.018397897765498 -0.055272939767373 0.667201537500517
0.022719120743655 -0.054829575731853 0.665472992090356
0.028816331512034 -0.053860108886044 0.662539019089231
-0.029717676129576 -0.048354958520763 0.662015805737133
-0.025063804633387 -0.047782896467343 0.664363935792803
-0.020002988054050 -0.047547357501855 0.666645355161472
0.019201973961550 -0.047865538554219 0.666991360526163
0.022835480498860 -0.048941127579704 0.665436791500012
0.028593587283488 -0.048480394349784 0.662666481535726
-0.030008144646811 -0.042642223007788 0.661805165254148
-0.025856007091719 -0.041644414984244 0.664000444436715
-0.020237972524849 -0.042629300934573 0.666558006758206
0.018911973564391 -0.042269956505189 0.667081654737682
0.023435212101545 -0.042630202725236 0.665172325176102
0.028317621769655 -0.042008189923056 0.662809446124157
-0.029059697954381 -0.037007451228149 0.662425971684074
-0.026239153640539 -0.036753304016033 0.663827880772418
-0.019654273629527 -0.035845168128452 0.666804128795893
0.018778819080340 -0.036385977508216 0.667124852472931
0.022190888509949 -0.036466836029716 0.665753707218206
0.029080679496545 -0.036597880668961 0.662402532212594
-0.029568641767706 -0.030947148858385 0.662114945845389
-0.026134463002556 -0.030309448903692 0.663901053590224
-0.019456050230597 -0.031276436048500 0.666904477291912
0.018772688552806 -0.029521108821398 0.667126784682605
0.022149502650381 -0.030996894493933 0.665783540816754
0.028568171670851 -0.031050443301399 0.662674758057627
-0.028944345469525 -0.024784527394066 0.662505709352772
-0.025996698532155 -0.023936810852634 0.663976933274718
-0.020679752606846 -0.024410955030826 0.666363967885934
0.018741963228716 -0.024833380632349 0.667136471632530
0.022006898219979 -0.023868154016275 0.665861386451668
0.029007762833855 -0.024396809271160 0.662448782171468
-0.029419423469812 -0.018486765861471 0.662202297484395
-0.026610730243926 -0.017869518692580 0.663706070694885
-0.020029213739082 -0.018111217402123 0.666679051966277
0.019263906342668 -0.016884434600590 0.666971906801512
0.022555837114572 -0.018171853713921 0.665628819928449
0.028218123566911 -0.018298160037049 0.662891003810974
-0.029262350938382 -0.011541642100512 0.662304590550498
-0.025771456122060 -0.012354184871281 0.664109285374580
-0.019440832157492 -0.011918970108819 0.666890363810293
0.018794818734598 -0.013599383084634 0.667119805629541
0.022370846662002 -0.012105215734875 0.665706276294762
0.028347770606877 -0.012059462530935 0.662810316542783
-0.029299764411766 -0.007079082863965 0.662286446384529
-0.025632923479036 -0.006819062195393 0.664205797823680
-0.019680820067764 -0.005674539891378 0.666789212435663
0.019097062154079 -0.006329485668012 0.667024510230325
0.022911162326474 -0.006031010054882 0.665484000853863
0.028344138753080 -0.006150741905158 0.662822648792512
-0.029097416788362 0.001357310570220 0.662443569058298
-0.025344384481158 -0.000116140072710 0.664349883826580
-0.020313531006975 -0.000278144668422 0.666523838368560
0.019057125270837 -0.000649900303738 0.667037101403209
0.022238220372644 -0.000048020193626 0.665785702642739
0.028109074915404 0.000117861596192 0.662923753488077
-0.029796412159819 0.005382945131698 0.661968649208285
-0.025579664812265 0.006110296566797 0.664229492455140
-0.019869439867665 0.005781045714764 0.666715954288889
0.019070991106800 0.004628397231962 0.667032729096733
0.022225621536196 0.005760055272918 0.665790871774075
0.028159977969093 0.005896576561237 0.662932690788728
-0.034466729898580 0.014080626747173 0.661369177566733
-0.030679594238314 0.013034967907896 0.662966689266974
-0.024304269612863 0.012879220005048 0.665447629339537
-0.020565997081819 0.013495532096309 0.665768415539811
-0.014683683750813 0.013401706754008 0.666841037831896
0.012999130236388 0.013181238312613 0.667164204711567
0.017135696714482 0.013632141399240 0.666326265753294
0.022214659184583 0.012988314750099 0.665708025547292
0.028524556923303 0.012687144527253 0.664013124508708
0.033033903457806 0.013516630290556 0.662066798801154
-0.034506555915580 0.017079796483258 0.661393948657771
-0.030327579462887 0.017245081507673 0.662733680406310
-0.025493937826219 0.016260157771484 0.664101229671918
-0.021091861658813 0.016064660697210 0.665657189305805
0.018742192640006 0.017393864319344 0.667082042804422
0.023216520725885 0.015944852590776 0.664886238175994
0.028114922989163 0.016694762794735 0.663360830837757
0.033073042793595 0.017224348330888 0.662162201268734
-0.029438009666069 0.023226875459469 0.661826867818973
-0.025296171624303 0.023231743899639 0.664014740238435
-0.019992893470484 0.023304691847998 0.666259040315115
0.018003381635257 0.024107609918494 0.666923262239305
0.023107242161718 0.023521277536954 0.664993554246163
0.028234422129785 0.023381351402021 0.662500071988371
-0.029024110819848 0.030013003186282 0.661726148296035
-0.025459066852869 0.029766481943162 0.663614907374212
-0.019438322208944 0.030073854089834 0.666120191002636
-0.015962208777805 0.030458639477705 0.667181705565769
0.017347329495418 0.029790900965412 0.666862421045523
0.022627788259161 0.029408609153642 0.664921733377118
0.028081010668669 0.029645656080435 0.662280219705239
-0.028779801030447 0.035703661049950 0.661603947486514
-0.025673077093847 0.035814596354638 0.663207705532261
-0.019195369006015 0.035521257507113 0.665954206738192
-0.015628162072213 0.036315707286870 0.667007620866875
0.016641318439765 0.035612127279380 0.666794833535881
0.022401082848651 0.035531764353491 0.664730495373444
0.027737571154040 0.035552080490886 0.662170546380661
-0.028616239527196 0.042170779957326 0.661400124905147
-0.025165465129714 0.043049363840832 0.663052875698294
-0.019347521053776 0.043060734645885 0.665464368005338
-0.014545799717537 0.043366487392626 0.666891669230831
0.012934192476993 0.043869890738745 0.667228886539050
0.016761565250281 0.042716273919589 0.666341767878239
0.022136086295795 0.042953278517591 0.664397444501923
0.027319513163507 0.042761296319641 0.662010988612575
-0.024631814939121 0.046944091605571 0.662423649316091
-0.019435720376860 0.047647162490546 0.664209007646909
-0.013442038312235 0.047601499511644 0.665927826448936
-0.007721283778338 0.048757469392479 0.666505679200165
-0.001384465511631 0.049376333376812 0.666694997776669
0.004817138840937 0.049192984570260 0.666601446969422
0.010882808951235 0.048018292906900 0.666311937221755
0.016647134262756 0.047588171906438 0.665110917359858
0.022504490622225 0.047549310578649 0.663101281103843
0.026579162849446 0.046260878838133 0.661787134765564
-0.022728812464726 0.050820017062969 0.661379331017720
-0.018630542311444 0.051610361493523 0.662382133717645
-0.013190721263689 0.052635373025569 0.662999036378560
-0.007209946542584 0.053008670606807 0.663697160055647
-0.001239645007443 0.052925807322732 0.664169399797263
0.004632801706304 0.053019194421923 0.663904543462191
0.010286559840944 0.052839952926633 0.663412629718364
0.016491239695332 0.052259111243713 0.662543764475214
0.020881552805286 0.051181118265944 0.661894907498214
-0.016644626301211 -0.077089212370413 0.667404277058410
-0.013403954347088 -0.077130624949113 0.668195200200337
-0.007299787773815 -0.077145276958567 0.669308141069007
-0.001286651841732 -0.077150509042936 0.669740887478865
0.004480739991302 -0.077133997886737 0.669586892179386
0.010572584386981 -0.077151689381156 0.668795517825775
0.015157653270595 -0.077111585156090 0.667719546977106
