ply
format ascii 1.0
element vertex 878
property float x
property float y
property float z
end_header
0.009212208140786 0.179036199800538 0.037874297141994
0.011307578220559 0.178637672438978 0.037499495213371
-0.021577582558380 0.067167478236627 0.039013671436053
-0.019562818714949 0.066985361322334 0.039834486089209
-0.017202950147032 0.066852271192286 0.040701808683822
-0.015240748392091 0.066748711478297 0.041068266545782
0.015093214826800 0.066748711511451 0.041083659861230
0.017055636557811 0.066766872057629 0.040689914575505
0.019210171034339 0.066929135855741 0.040061064325430
0.021323362848574 0.066833049946584 0.039028483391252
-0.021974899167447 0.070390637568673 0.039016571586503
-0.019679080883254 0.070764516604006 0.040268718106472
-0.018061070592550 0.070275200017405 0.041075287878385
0.017579979220653 0.070516320064953 0.041274546329050
0.019397437498044 0.070785817633499 0.040499021648149
0.021548467223952 0.070716411839183 0.039257364953750
-0.021761060191804 0.073029740072777 0.039165885560614
-0.019663001662103 0.073658719834433 0.040276025761425
-0.017973654624316 0.073161385726016 0.041119047620540
0.017816483241557 0.072910719011052 0.041181828863951
0.019660115333986 0.072885424998551 0.040341934024101
0.021740096201263 0.073604574148912 0.039182664939805
-0.021876968153635 0.075689514872540 0.039127726986488
-0.019547032873174 0.075957113578938 0.040330964795951
-0.018033098952719 0.075530047135562 0.041109465734792
0.017776075744550 0.076001274878735 0.041158118277454
0.019501710535990 0.075769968948345 0.040399722839700
0.021726527762988 0.075852695627368 0.039215175427493
-0.021646913287067 0.078356821701178 0.039246396181794
-0.019622530083478 0.078536160799667 0.040285669162639
-0.017881977615570 0.079067396782366 0.041177874572984
0.017742885569499 0.078171757985050 0.041143575582312
0.019455313652258 0.078730927870539 0.040384044318475
0.021402222244779 0.078515890587669 0.039434521353965
-0.021650971658107 0.081157351829325 0.039191984434348
-0.019550389463388 0.081050577647447 0.040276114701707
-0.017917292222180 0.081425009085931 0.041094772031699
0.017691568229018 0.080920943446589 0.041109589409840
0.019273725613767 0.081210500820219 0.040402858427469
0.021888193079181 0.080987579897291 0.039095088580488
-0.021521053376803 0.083527713106962 0.039195390415119
-0.019955669536056 0.083717563089615 0.040000132281001
-0.017929338075171 0.083556353648490 0.041017922418757
0.017584097075944 0.083816952698364 0.041073788990948
0.019368208850959 0.083560682375476 0.040293598689796
0.021646139346456 0.083511545000189 0.039152609752955
-0.021818207513988 0.086226368156495 0.038955725510976
-0.019301054550541 0.085944981659244 0.040277104647082
-0.017688067745238 0.086179073691066 0.041031453866308
0.017608368196949 0.086029726872411 0.040996308104474
0.019459083224644 0.086461452111770 0.040167145371424
0.021490720839501 0.086099356072827 0.039146284843370
-0.021520057288245 0.088865135432315 0.039026808955261
-0.019583108370924 0.089045868864059 0.040044864456191
-0.017905868150818 0.088558329081809 0.040847318535220
0.017291219791939 0.089045771269849 0.041022790140541
0.019297880740947 0.088908225838894 0.040160920728749
0.021183785428085 0.089106277780027 0.039203875467700
-0.021429030116763 0.091244360064680 0.038991938893574
-0.019441136605573 0.092018525112641 0.040058195441627
-0.017660640705667 0.091878450153255 0.040949518538092
0.017372114822775 0.091642026245219 0.041035678074212
0.019135228828570 0.092095350089189 0.040227116540898
0.021187465388723 0.092009177553754 0.039108025635130
-0.021612862320915 0.094438684835131 0.039411547087515
-0.019990767175854 0.093863992941297 0.040369960856197
-0.018185316539549 0.093066612057340 0.041110350830514
0.017884168448369 0.093033694064586 0.041244197486599
0.019623559377797 0.093737087837543 0.040553402345500
0.021374753969418 0.094248013877970 0.039564345558145
-0.024127222587854 0.096974864168152 0.039194510206571
-0.022572107157812 0.095902843364702 0.039778886548280
0.022402726133381 0.095915261488600 0.039931964497792
0.023973089666708 0.096947043633683 0.039367755455220
-0.028804584133789 0.100534823270320 0.040967931639497
-0.027655828806458 0.099692722100374 0.039748443557078
-0.025584772725444 0.098240327146810 0.040702545033827
0.025540332554813 0.098107105350434 0.039657394023742
0.026916895836446 0.099130231007374 0.040011956131190
0.028523458171534 0.100409803087994 0.040072550653929
-0.031484092373510 0.103119219326789 0.039298682310054
-0.029988622019369 0.101693843723572 0.039860421552825
0.029714799302985 0.101401780562574 0.039575518416586
0.031334914979854 0.102939513036526 0.039708566630435
-0.033054195197006 0.104660318164181 0.040089192075900
0.032939481051325 0.104617484537994 0.040080402387333
0.033792896756589 0.105511867715711 0.039739298114521
-0.035059571956131 0.106954823828986 0.040008679312349
0.035065259636651 0.107009451267910 0.040249997767756
-0.037056837299445 0.109670579853262 0.039894894403333
-0.036292969783677 0.108576818094301 0.039590099167339
0.037173627780549 0.109883797591709 0.040790258732621
-0.039306225071968 0.113354652181779 0.040015704195390
-0.038291549495929 0.111509582628807 0.040236814946415
0.038506668393484 0.111964553192675 0.039621302465610
0.039018764659633 0.112902845437213 0.039779813497933
-0.039865145143611 0.114399192692036 0.040446973053436
0.040029704462908 0.114748423874314 0.040079422555139
-0.041828916473030 0.118719425576252 0.040278016166456
-0.041254541485189 0.117269152458760 0.040493765066505
0.041109497628713 0.116944701802599 0.039604062921842
0.041534457403298 0.118084201591730 0.039469805086984
-0.042289175856303 0.119952925123597 0.040221156728513
0.042154802744531 0.119723349115632 0.039883837526356
-0.043161529774795 0.122542841563357 0.039974421166474
0.043178265093131 0.122778101941562 0.040215872446094
-0.043760996428628 0.124910343392394 0.040154681869822
0.043774177286392 0.125416171920097 0.040085111649218
0.044018714115884 0.126413763045240 0.041161324139730
-0.044520209612841 0.128786265762902 0.039198565493522
-0.044318292828052 0.127513521114803 0.039526080208843
0.044350752017428 0.127901215276760 0.040048679850677
-0.044679433474392 0.130053954687151 0.039959955691544
0.044581654755345 0.130388762736135 0.040458304912161
-0.044826952566858 0.131964844635711 0.038935807504936
0.044870425668395 0.133226619443627 0.039992439095061
-0.044986603447241 0.135399559370689 0.040485456338970
0.044959502690194 0.135747234708966 0.039836540108208
-0.044829567748423 0.138059232246778 0.040528562114532
0.044798591127711 0.138179173668235 0.040611725025924
-0.044665951546308 0.140380190745663 0.039572784120442
0.044616111578239 0.140701839798631 0.040309444769356
-0.044087435127603 0.143738477160774 0.040588985660619
0.044277722666034 0.142882026996541 0.039064827835803
-0.043574561716683 0.146097474369750 0.040381098829723
0.043641947447047 0.145803963696897 0.039160795235737
0.042884439567023 0.148631279843699 0.040408439491023
0.042040424593332 0.150943103271730 0.039672167159229
-0.040873157914679 0.153883597743392 0.040164831520682
0.040300919324169 0.155048947249775 0.040306090066705
-0.039397951266034 0.156626360771661 0.040863951703429
0.039494639311299 0.156526432399559 0.040030772951037
-0.038179374352388 0.158855140778307 0.039189697726535
0.038035694447422 0.159161407087194 0.039990906357678
-0.037180068090182 0.160383098536564 0.040266064964057
0.036461061285847 0.161394276003103 0.039389965229862
-0.034727825362760 0.163653231845267 0.039927806663351
-0.033331131360209 0.165297625179365 0.039629719171341
0.033124040985722 0.165531757782993 0.041097868382636
0.034380919657088 0.164142761402074 0.039925294687354
0.030858029609586 0.167802169548803 0.039023785560211
0.032661245587634 0.165998903196854 0.039045808552688
-0.029813666963429 0.168781331339143 0.040189916593643
0.029381341579214 0.169198762252158 0.039667524470882
-0.024976582809698 0.172520821994891 0.039998111835327
0.024855707852217 0.172603565517321 0.040237728767324
0.025967641446844 0.171779616696306 0.041134989330123
-0.023609455232443 0.173422065131083 0.039278868230994
-0.022365696440858 0.174068309197046 0.039777352483279
-0.020319865207741 0.175174453252397 0.040281562027725
0.020339197978626 0.175163322212646 0.039138773818342
0.021607654365574 0.174471608363608 0.039952759815680
-0.017220135102401 0.176641557528993 0.039808974563197
-0.014680342216017 0.177588202948686 0.039927298536912
-0.012385459461250 0.178382978504767 0.040009900655667
0.011791701496662 0.178534238698676 0.039420084082487
0.014059164568773 0.177800458817870 0.040011271947028
0.017357550319427 0.176572794628066 0.040673352478062
0.018831244506090 0.175988479301281 0.040718397361971
-0.010964639745802 0.178713588623182 0.040024691296462
-0.009130772494339 0.179112532772810 0.040019640814455
-0.005978759593701 0.179725158751015 0.040313093908144
-0.004958848055751 0.179793863612652 0.039683439796711
-0.002573515472042 0.179886260337701 0.039835846890430
0.001439835391899 0.180047343478182 0.040001029864053
0.003959756442627 0.179996795566799 0.039909544467414
0.006102268508676 0.179619046534350 0.038704543011292
0.009831739295611 0.178910389798922 0.040661173010423
-0.016412778597901 0.067411755277342 0.041543822081004
-0.014213350328852 0.066845819961854 0.041937097726700
-0.011764277767040 0.066986217634963 0.042788867330936
-0.009298042354210 0.066815921147091 0.043112549292522
-0.006742505973390 0.066748677538292 0.043324928227028
-0.004292632746577 0.066748664130048 0.043662485243237
-0.001638325107547 0.066748678286943 0.043733591168662
0.000973088044594 0.066748685063602 0.043763812110968
0.003918873770104 0.066748714287795 0.043599861259875
0.006451038364905 0.066748737844619 0.043502995256282
0.009094276773515 0.066817965321976 0.043353431383554
0.011497470173564 0.067015082590018 0.042730147150577
0.013977843390701 0.066963896287573 0.041949440300645
0.016132505266477 0.067154463738223 0.041531258766599
-0.016335881346444 0.070509410758243 0.041682908785906
-0.014440245669365 0.070409000684638 0.042342275523883
-0.012171277555038 0.070456868991436 0.043122799881433
-0.009879681028226 0.070829585167644 0.043679341017722
0.009407055613062 0.070423738777003 0.043795780023601
0.011732450301332 0.070731329844855 0.043137192732643
0.013858967078515 0.071120391399671 0.042475575386127
0.016476558166713 0.070777890196759 0.041633026091484
-0.016675545893749 0.072618476305997 0.041581280107299
-0.014469469828177 0.073332603052104 0.042355319390633
-0.011921646446734 0.073222021899756 0.043195820658374
-0.009790641422485 0.073222495948326 0.043690385197030
0.009560378080016 0.073306915077098 0.043739225418586
0.011257423990222 0.073417620078243 0.043300616906618
0.013975557957121 0.073695982905083 0.042493560089999
0.016502858144697 0.073696824345675 0.041674406386533
-0.016536567109107 0.075729561060971 0.041654273775997
-0.014477829859778 0.075880748418119 0.042372949406442
-0.012035408422315 0.075732473256686 0.043152614909861
-0.009390630188391 0.076066802767740 0.043749983850990
0.009374780406902 0.076385987192353 0.043776397777156
0.011642179242679 0.075806823112919 0.043193049565464
0.014201122651611 0.075998256330577 0.042467178955503
0.016786631675582 0.075942185726461 0.041591090308190
-0.016592093835295 0.078754783072636 0.041657263146936
-0.014283646119799 0.078728528551793 0.042463371916544
-0.011955648572857 0.078528424017547 0.043146841087785
-0.009549375238852 0.078523759975078 0.043713677998282
0.009411148410581 0.078216592502106 0.043753302588846
0.011284403306237 0.078116564897746 0.043275449724946
0.014346126009381 0.078646115997722 0.042461574176102
0.016544582935613 0.078614999614672 0.041662841958524
-0.016665031429339 0.081167516798588 0.041601976478193
-0.014463504660483 0.081166997810081 0.042369482418455
-0.011906654019263 0.080962103163399 0.043122204562330
-0.009253851380931 0.080913384902571 0.043765241907976
0.009170705145757 0.081870795500740 0.043796364000785
0.011429635469049 0.081053702873769 0.043218521203613
0.014520782624504 0.081020355162707 0.042396292339471
0.016261426364205 0.081281795272444 0.041729075142747
-0.016556773578870 0.083351245093468 0.041592484158716
-0.014628685015913 0.083557165155042 0.042252662668042
-0.011441388206215 0.083498544960151 0.043189597118065
-0.009373971170244 0.083723850799189 0.043678835876683
0.009455949939517 0.083568972338437 0.043685715245414
0.011645408459853 0.084006446565149 0.043082239277074
0.013760523525332 0.083842109577113 0.042506433169791
0.016124877257455 0.083721636016382 0.041708996899231
-0.016403549440395 0.086346956532864 0.041579926687740
-0.014686561181303 0.086169494391573 0.042166789111024
-0.011682935881334 0.086027495398404 0.043064477110424
-0.009379630796070 0.086368487823286 0.043624213328000
0.009045863528233 0.086289872007869 0.043683369901985
0.011557508494575 0.086284489168451 0.043053873341753
0.014255772861444 0.086261845596103 0.042286893997822
0.016069601216381 0.086264999182703 0.041639674671593
-0.016323134139200 0.088904537219345 0.041540924204961
-0.014242283770814 0.088962613837206 0.042226287334269
-0.011556351847521 0.089427022601064 0.043031422737175
-0.009376633197172 0.089624853989928 0.043607323265733
-0.007874658010405 0.089426968243299 0.043866922142910
0.007524109851795 0.087928161439167 0.043893446217018
0.009105298633827 0.089454742864881 0.043677213991923
0.011378872942761 0.089447081434257 0.043123026198238
0.013833121697592 0.089251553640093 0.042331683971118
0.016176623548451 0.088407453471395 0.041514552706542
-0.016401649740349 0.092016722658918 0.041717468211363
-0.014467981014934 0.091784956036828 0.042740747500668
-0.012105408103431 0.090889769419371 0.043275418253556
-0.009998891476318 0.090446356703085 0.043757607863523
0.009818410952400 0.090370785074351 0.043778667941672
0.011722407787020 0.090921255519745 0.043428842729044
0.014188104815723 0.091594426746746 0.042800342418694
0.016144262921894 0.091861370115656 0.041817013677606
-0.019159983089056 0.094318688638149 0.041887926211118
-0.017196320791389 0.093294152598566 0.042204498225577
-0.015467772256761 0.092868195953857 0.043248812967087
0.015222874515813 0.092816931960359 0.043361710468262
0.016916698886176 0.093217088504075 0.042352812840372
0.018994160248022 0.094257221226912 0.042005183207177
0.020676144426096 0.095274816615042 0.042885709163323
-0.024607408832867 0.097565813003247 0.042454221958716
-0.022261429409261 0.096083069844599 0.042564847178064
0.022177174674819 0.096066749374510 0.042855533024100
0.024417135340002 0.097437432302328 0.042653454909250
-0.027429425912402 0.099558945805322 0.042380275598180
-0.025695814153954 0.098345967619675 0.043297804199346
0.025550247953256 0.098203293648478 0.042911075673214
0.027086460333104 0.099290465997470 0.042770006625039
0.028457908647854 0.100350502404991 0.043759105922489
-0.030003791334591 0.101715185036863 0.042391511371081
0.029871010077397 0.101541943656411 0.042502597693586
-0.033159016237868 0.104763527898845 0.042381376068581
0.032435769672088 0.104080677049355 0.042776874278279
0.033836767119441 0.105547261411693 0.042683348088815
-0.034983069757551 0.106881312916025 0.042656417667635
0.035495489457969 0.107590662221655 0.042419111082673
-0.037296748229054 0.110015384006135 0.042554461690248
-0.036380265441822 0.108720486772881 0.043162458128918
0.036100552826393 0.108403496403773 0.043234520587809
0.037042458039165 0.109701364760415 0.042278644789436
-0.038384791711389 0.111694559623616 0.042832677778001
0.038350592879462 0.111687747238381 0.042778648497926
0.039110116087388 0.113078252090162 0.042615942861744
-0.040233149133783 0.115099286536222 0.042850524522176
0.040152982778706 0.114982926191995 0.042680444240819
-0.041218625704056 0.117176753251683 0.042419906559347
0.041216230267173 0.117228027779019 0.042370779270795
0.041764958006045 0.118699320671855 0.042277428968410
-0.042342689568877 0.120117513747778 0.042629424196977
0.042329672991595 0.120191454185960 0.042446845385807
-0.043128791712487 0.122408510276880 0.042131270310538
0.043094447068856 0.122384840641556 0.042787471079507
-0.043911541131188 0.125636859120904 0.042366153613507
0.043768730983972 0.125385634213649 0.043247235607486
-0.044510806092336 0.128684038710513 0.042897124001902
-0.044191596776301 0.126935857340838 0.043110790249416
0.044317787666358 0.127810840938438 0.042518563885545
-0.044698075642279 0.130376460406033 0.043371762327456
0.044590062449869 0.130405698617111 0.041896868840711
-0.044916217633501 0.133415667056369 0.042627425001869
0.044837488050624 0.133081473675597 0.042941427574962
-0.044981724774868 0.134547269527447 0.042655527245084
0.044973413673439 0.135168028113909 0.042737897642532
-0.044823032711407 0.138074282758560 0.042720261407960
0.044773264711625 0.138503449941485 0.042647205057260
-0.044644327305534 0.140555329557828 0.043225815378798
0.044598546406581 0.140747152616908 0.042728353580234
-0.044223220594336 0.143101727571712 0.042521534592509
0.043988486703529 0.144192439339652 0.041795574946141
0.044188773895609 0.143257064661656 0.043883748197791
-0.043825602417100 0.144931103303791 0.042282915531601
0.043458346522214 0.146627549692056 0.042066633373738
-0.042994321475372 0.148330519612548 0.041604079875477
0.042858208992322 0.148678533293999 0.041791558758167
-0.042217868117908 0.150434320210720 0.043085935027235
-0.041618717504786 0.152041820009497 0.042707279433563
0.042025924523971 0.150972441704492 0.041841789252677
-0.040658873556903 0.154342602779726 0.043152773483426
0.041168661339048 0.153222170722531 0.042685925522859
-0.039651148721359 0.156165338471664 0.042413187448107
-0.038838916960098 0.157651332788025 0.041540537511264
0.039564207341265 0.156393183801139 0.041839403908962
-0.038348609438918 0.158550194140602 0.042074791601481
0.037825302550031 0.159504536889437 0.042347451117516
-0.036325432316639 0.161519316832982 0.042072661039720
0.035606190148287 0.162524217842561 0.043024378051320
-0.034879292804492 0.163451252300739 0.043084081449625
-0.033335718850952 0.165290664747345 0.041423075896885
0.033964285841650 0.164655611581120 0.042679081159703
-0.032476860102432 0.166142219790921 0.041963615523870
-0.030822474385915 0.167796890563054 0.042687883107291
0.030628266206697 0.168021953462037 0.043732721958514
0.031744599651710 0.166909293856381 0.041998180154839
-0.029709877247289 0.168893368581568 0.042714061464750
-0.027549364418630 0.170612097064978 0.041726555972129
0.028248356992721 0.170072007216303 0.042549320418499
0.029876540679041 0.168757393553293 0.042531136854152
-0.026855557395224 0.171130705878761 0.042291235162770
-0.024478745982439 0.172853503676267 0.042596567060052
0.024911714732678 0.172569955380086 0.041741589952428
0.026792271470149 0.171162044715104 0.042439165348249
-0.021897884217506 0.174316107928652 0.043124085143832
-0.020565492363564 0.175042788942795 0.042392083600680
0.019621752064377 0.175558709747573 0.042399901448442
0.021388411573992 0.174594554289577 0.042850514500205
-0.018863203391524 0.175972764205068 0.042791729421202
-0.017103484863733 0.176682437349872 0.042908625566363
-0.014824122667531 0.177533251760167 0.041908873897814
-0.012782936769435 0.178289098353689 0.042594067980956
0.012274861809531 0.178422835222352 0.042396992786122
0.013505941941897 0.178008355109254 0.042865452218834
0.016488999829773 0.176895466185283 0.042336138686587
-0.009270914595754 0.179079243089674 0.042718556008216
-0.007070825598457 0.179538324760982 0.042288677589052
-0.004303538683663 0.179810775592381 0.042442573846151
-0.002400739389127 0.179885927509569 0.042565770738760
0.001569775919970 0.180044252834252 0.043118282691886
0.003945137717414 0.179996440436662 0.042715676747924
0.006348338383583 0.179558221774121 0.043114774026471
0.008488706497264 0.179157040219613 0.042557446714017
-0.006108231424082 0.068004425177966 0.044049616917269
-0.003707040900329 0.066933602658536 0.044138847552423
-0.001380887687316 0.066920035846116 0.044335372364557
0.001006935689693 0.066924427843319 0.044240183894244
0.003750193799989 0.066919108846812 0.044108482249099
0.006257161187502 0.067047110921677 0.044025733596068
0.008177566118648 0.068133154024219 0.043964161306103
-0.006228089936498 0.070732607915279 0.044086962617837
-0.004556345722421 0.071002974673438 0.044276702535695
-0.001296083162239 0.070776046665848 0.044606734892199
0.001436129099637 0.070789084798962 0.044501180388111
0.003766350126819 0.070533658196894 0.044320413290585
0.006303621293222 0.070932010481701 0.044127742425444
0.008636086170224 0.070424953740930 0.043933309582516
-0.008069939285375 0.073322488785805 0.043900649758355
-0.006537866588421 0.073075957884995 0.044070645800230
-0.004108075350090 0.072863726826000 0.044341658317580
-0.001665661921541 0.073436789495590 0.044585619619034
0.000958799837017 0.073328501641560 0.044548601638824
0.003462695413014 0.073019213480300 0.044359396614257
0.006404684337309 0.073023523192239 0.044133116441397
0.008336225269702 0.073215923804868 0.043959744179199
-0.007340527916885 0.075616806750737 0.044000569802476
-0.004075851693639 0.075972880348496 0.044369751216807
-0.001702966677478 0.076263219938111 0.044586578592070
0.000936244214220 0.075851974636504 0.044559161911424
0.004244870341855 0.076010237953073 0.044318032011529
0.006705243055196 0.076065583709137 0.044125390246629
0.008210541407419 0.075869590313767 0.043964013625795
-0.008208824945149 0.078818052961446 0.043931972802202
-0.006985768256298 0.079162498681179 0.044068901025168
-0.003969445739344 0.079000183201976 0.044402460410524
-0.001989161076354 0.078453151915997 0.044565078741070
0.000952136649251 0.078473231750027 0.044564736976726
0.004434735375413 0.079035233326737 0.044322443349118
0.006525585452498 0.078416429152718 0.044149501897014
0.008182101727835 0.078835457757309 0.043954123405800
-0.008292688305143 0.080648251280225 0.043940345566620
-0.007372361516849 0.081323593181231 0.044046087823063
-0.003513872952634 0.080905335060427 0.044460305282445
-0.001130867777054 0.080926073519525 0.044607040303873
0.000994070216635 0.080897352604446 0.044565722686120
0.002928783574956 0.081370444443423 0.044448204441716
0.006867908159947 0.081143537189117 0.044115524518817
0.008088530831064 0.081542082681831 0.043953947026091
-0.008159691891430 0.084059482224775 0.043908889008868
-0.007105693804958 0.083692027505097 0.044086183774673
-0.003804260225387 0.083694338758160 0.044438844020262
-0.001642837213006 0.083630488095517 0.044573741780452
0.001358950976021 0.083612459952685 0.044548438771568
0.003860524568058 0.083817449503111 0.044393375862089
0.006315219283445 0.083738867180497 0.044170762009876
0.007852072258398 0.084127704159796 0.043963803685894
-0.007997992643316 0.085338915556564 0.043908988146207
-0.006914138841975 0.086205705071156 0.044081118743321
-0.004197819699484 0.086038951939941 0.044414740646562
-0.001313701995259 0.086710066431009 0.044585978080613
0.001154819101041 0.086219243215463 0.044563913806122
0.003461864428061 0.086293781613841 0.044428523886430
0.006628916820805 0.086554613713566 0.044092688027701
0.007789312097857 0.086467104202164 0.043900464485783
-0.008234415384646 0.089884371512459 0.043978224366339
-0.006657434666880 0.089588831638926 0.044302347567368
-0.003982883785669 0.089539831363122 0.044769646171801
-0.001583169628658 0.089517403218047 0.045089013929068
0.001247863489975 0.089583982631446 0.045136599231913
0.003663632601399 0.089421481537685 0.044783098069914
0.006216793214942 0.089406368560364 0.044314841690149
0.008093631276838 0.089800544829481 0.044017128138573
-0.013777074229151 0.092314365975404 0.044690623198227
-0.011798954220141 0.091622569913396 0.044424774816221
-0.009279144608542 0.090895494206851 0.044643889675685
-0.006708513449903 0.090482517967705 0.045184107747115
-0.004317503692150 0.090272717193354 0.045538975418452
-0.001847533812381 0.090161899938127 0.046108284291008
0.001346163683304 0.090174792923678 0.045987094651101
0.003957462622698 0.090266037982459 0.045640609918385
0.006358262946165 0.090452481817231 0.045258083366058
0.008938747637903 0.090719973414562 0.044550489396915
0.011429088320239 0.091523514504523 0.044424814898900
0.013555277295664 0.092221938882073 0.044553487214800
-0.019618758583386 0.094697386612390 0.045144615024547
-0.016984035445947 0.093534283150076 0.045624957077540
-0.015573134784060 0.092989114487652 0.045338559277761
0.015172899536704 0.092833423799817 0.045160328229275
0.016715720400531 0.093432128032701 0.045354890378370
0.019041547267040 0.094426555582734 0.045353775024030
0.020724697809564 0.095310817061258 0.044394380354323
-0.024200462075015 0.097263860213042 0.045456534434641
-0.022005056831454 0.095967835236975 0.045044076530021
0.021761334951287 0.095864700024176 0.045385493097671
0.024331484797307 0.097378573557551 0.045176039172794
-0.028787949705814 0.100535882804134 0.044168538598628
-0.027514436834281 0.099650180582520 0.045350890898649
-0.025840567244635 0.098458994463716 0.044336643509778
0.025552106215396 0.098265451172728 0.045138103124438
0.026932927329903 0.099196591777156 0.045099279359268
0.028555276887960 0.100425519570753 0.045490934008023
-0.031440627032458 0.103134805838314 0.045580050316830
-0.030020855970817 0.101731013870121 0.045378059515005
0.030048680291613 0.101701461058699 0.045346974700928
0.031027937889677 0.102646516769121 0.045861869123976
-0.032840298208145 0.104484794692523 0.044928999783727
0.032412245872284 0.104053081008311 0.045245152093609
-0.035370467197964 0.107390151203095 0.045023292049315
0.035102383584313 0.107093366151933 0.045280297366851
-0.037100305690991 0.109735046077230 0.045613103809097
-0.036489348031026 0.108885354979027 0.045078726866800
0.036196828346902 0.108545945243694 0.045708267711465
0.036904941186890 0.109512047726469 0.045016150778914
-0.039249274555957 0.113286476453596 0.044779464711719
-0.038525066994712 0.111964018638294 0.045285578065047
0.038493122874937 0.111954636333626 0.044829649935519
0.039049986641679 0.112973988465337 0.044664227061727
-0.040042312257076 0.114754579381716 0.045349304319107
0.040136510634320 0.114960875134640 0.045018196396098
-0.041412180600820 0.117671342039622 0.045786209430350
0.040979446149032 0.116592999065578 0.045700180568623
0.041631084318762 0.118336778807820 0.045802074214780
-0.042404777022846 0.120303478102146 0.044853905284452
0.042214715170530 0.119895057868028 0.044660719374429
-0.043056761263034 0.122143532919958 0.045928402513795
0.043223441046658 0.122858070947489 0.045345798396090
-0.043858657098493 0.125433615550342 0.044922962524573
0.043697818426002 0.125029510169543 0.045221023577014
-0.044406109277555 0.127974202168672 0.044799852251798
-0.044136828377505 0.126734318947983 0.046332625375331
0.044379081940750 0.128116027954211 0.044896678490598
-0.044710152478974 0.130614610921015 0.045020371797589
0.044545011598619 0.129562180517809 0.044951103967815
-0.044916769432219 0.133502623405780 0.045146852049542
0.044863091461732 0.133439292209462 0.045025125285837
-0.044982820490417 0.135206360416042 0.044820839381825
0.044976245336803 0.135075583852080 0.045540841052512
-0.044821735504954 0.138002314748956 0.045307770397520
0.044837954721711 0.137558405453155 0.045416726336751
-0.044053221785297 0.143869343603591 0.044655083889785
0.044332437433882 0.142587575379390 0.045176095241245
-0.043353300258765 0.147079983224544 0.045710599170568
0.043682208200232 0.145575356233026 0.045357452140253
-0.042853663020111 0.148700561307353 0.045292698348184
0.042842224694034 0.148740523263898 0.045086349229888
-0.042364030194176 0.150035145475242 0.045546659953553
0.041758551036823 0.151674208498878 0.045273944131560
-0.040731537375765 0.154102899358060 0.045086247513573
0.040876482322290 0.153902185703911 0.045713514128089
-0.039493489841301 0.156458785982209 0.045140933274465
-0.038935286978413 0.157479032796246 0.043964647332771
0.039622411427033 0.156275598012863 0.045241519457408
-0.038049621127122 0.159090300690900 0.045434574968655
0.037913267296162 0.159333001305734 0.045539857728532
-0.037021426698096 0.160589903164649 0.044968154453677
-0.036212129654335 0.161671082758302 0.045698082194642
0.035473586048979 0.162690490383795 0.046306075394648
-0.033952975219014 0.164686541766766 0.044054567216791
0.034421524833923 0.164076616213592 0.044924504243551
-0.032599091004908 0.166021404462483 0.045604279554097
-0.030729726678318 0.167890129075670 0.043949454111319
0.030740863336736 0.167904955191338 0.045809243478873
0.031642537604784 0.167005832678855 0.044604352522864
-0.029740523346196 0.168863205143443 0.044568485688000
0.028705172158841 0.169730204525480 0.044801210314217
-0.027063955050248 0.170970260541551 0.045537192398027
-0.025256223096620 0.172318605889606 0.045384606628320
0.024932267367868 0.172544404607812 0.045423282626699
-0.022309526346883 0.174094156203985 0.045354126183384
0.019303099605624 0.175734489283955 0.043999678172085
0.021557752045145 0.174504738292048 0.045226544726861
-0.016863114422584 0.176771087461920 0.044407821425040
-0.014235989254168 0.177750369630101 0.045262004887543
-0.013087554192039 0.178178371423739 0.045765062812043
0.012302055224988 0.178415093585571 0.045486288834947
0.016932961943586 0.176731955410852 0.044885148538966
0.018534746348418 0.176146656573441 0.044951729586196
-0.010627676803389 0.178782167079357 0.044573268037494
-0.009325808947254 0.179064746140570 0.045178731883043
-0.006252700548854 0.179700455677463 0.045051683824631
-0.004688387819959 0.179786039468981 0.045494750264635
-0.002261433212290 0.179884751786186 0.045106809320336
0.001025031224563 0.180016247511415 0.045396622355267
0.004609786742125 0.179877498983245 0.045201441615077
0.007048635240710 0.179416738106411 0.046043518974553
0.009349734899553 0.178989445518369 0.044222234275577
0.010685397576435 0.178737758893730 0.044280914741186
-0.013683373943417 0.092297825628189 0.047921367469010
-0.011827453908940 0.091797034366011 0.047670403578141
-0.009409844872500 0.091999848959585 0.048118077165712
-0.006547695295689 0.091399920671003 0.048083571474746
-0.004084472225995 0.091057453669006 0.048029151429179
-0.001309304546920 0.090789719715674 0.047972169466394
0.001022911458331 0.090995135198931 0.048104977215812
0.003948422061297 0.091094737081860 0.048040577297623
0.006349341466610 0.091224065925293 0.047972589113949
0.008838063480631 0.091828972255482 0.048038661643266
0.011167158602250 0.091937395576646 0.047882408802561
0.013719232402774 0.092306794419849 0.047798172101194
-0.019626192054367 0.094712367347333 0.047796860206612
-0.016920629519919 0.094406285073405 0.048242416726714
-0.014507377277831 0.093779652938854 0.048248027744438
-0.011923646625511 0.093120226129701 0.048332014534346
0.011872100454510 0.093088290777173 0.048136100097989
0.014052795499019 0.093666744043408 0.048380020169997
0.016697638743040 0.094289889184655 0.048179126660031
0.019590159053712 0.094712493326230 0.047613016013924
-0.024350359686669 0.097363646841242 0.047594689642217
-0.022028881532841 0.097014100999089 0.048270680035290
-0.019754163868011 0.096132924443040 0.048327672818052
-0.018147434627673 0.095385564929157 0.048514657751911
0.019276279802462 0.095943749297584 0.048397836624923
0.021802409655289 0.096855815162766 0.048104268858678
0.024201996367831 0.097280878634912 0.047763371781789
-0.026867865932853 0.099930256553881 0.048122407011353
-0.025003232449327 0.099162354651824 0.048346805197004
-0.023339527657378 0.098211220769303 0.048361968480726
0.023029864622059 0.098034474588664 0.048187718797018
0.024583163549289 0.099002821519474 0.048298414315948
0.026715083922043 0.099822382639777 0.048275354564115
-0.031420356696673 0.103120144583755 0.048662858748829
-0.029776194427115 0.102353743821188 0.048316061869120
-0.027676878078817 0.101342798796828 0.048491494981348
0.027664743760053 0.101292309899357 0.048267438802112
0.029370684767062 0.102311790244066 0.048312665251495
0.031350094386956 0.102979187675751 0.047871052929342
-0.034005812307942 0.105672427143464 0.048608855260486
-0.032210706493871 0.104895541140973 0.048283375126587
-0.030654794896181 0.104028931033201 0.048416463947740
0.030297775070882 0.103664397723085 0.048424365666986
0.031937467085889 0.104728885175771 0.048200641038318
0.033849319703395 0.105542849250693 0.047594607036169
-0.034593457581146 0.107400432092018 0.048155007547719
-0.033042774744106 0.106534331771566 0.048307793367635
0.032930765276505 0.106448679813924 0.048455707110262
0.034285136505772 0.107515202607238 0.048168926582722
-0.037263252633608 0.109973484613390 0.047377218067662
-0.035340294739411 0.109446400870571 0.048454196302005
0.035460885047418 0.109538485030980 0.048363657964977
0.036800013407115 0.110440547597048 0.048177310699444
-0.039229842956854 0.113268203622747 0.047062791779682
-0.037438413618399 0.112318310360200 0.048254719379427
-0.036497193798917 0.111136711339317 0.048505653767559
0.037329074778233 0.112149058570641 0.048297657852648
0.039016331639199 0.112921409670919 0.047831922215914
-0.040132568180343 0.115402685713355 0.048216087909410
-0.038567832644198 0.114595831494734 0.048281576130293
0.038317637872758 0.114152722395392 0.048350986394108
0.039494664976733 0.115419981526718 0.048060595341557
-0.040136018549140 0.117444464809135 0.048375874583472
0.040020929833313 0.117276623694681 0.048251430487499
0.041465263644572 0.117890037166632 0.047908516897024
-0.042052810342546 0.119384805166739 0.047703476247751
-0.041012762751558 0.120113272927800 0.048424311338622
0.041008751340992 0.120033608183798 0.048425840344663
0.042256385663186 0.120011505728460 0.047531310735241
-0.042301794952656 0.123221986918380 0.048307527215448
-0.041628173924034 0.121791744631464 0.047992609182372
0.042073304836001 0.122605809970418 0.048126350128735
-0.042702367434717 0.125359735600977 0.048314498115819
0.042712261148912 0.125270833844913 0.048232469350375
-0.044467419848956 0.128355917591836 0.046800076428053
-0.043116344072040 0.127782282599940 0.048408137526282
0.043154620729226 0.128095547887417 0.048299062469092
0.044408000144791 0.128223146520061 0.048081285618420
-0.044682064991577 0.130361148126648 0.048234622236670
-0.043429629508385 0.130292821686005 0.048182269919047
0.043426838727450 0.130387584101352 0.048444131573008
0.044613141984540 0.130348551038272 0.047327516880962
-0.044844462605167 0.132600781022124 0.047551359878280
-0.043629198790254 0.133158581321865 0.048349827706699
0.043648250879982 0.133032011234210 0.048331130857184
0.044842994158103 0.133391187481093 0.047738105193112
-0.043708067662727 0.135401094518179 0.048274374470400
0.043685348255221 0.135487477470051 0.048357214343452
0.044973777256396 0.134958786697277 0.048134374147240
-0.044809751534869 0.138080805712859 0.047865498376223
-0.043597476123491 0.137971087249878 0.048367590493034
0.043598964732306 0.138219561662783 0.048381659212871
-0.044574617869777 0.140936905511712 0.047833769877553
-0.043332261121170 0.140829804962946 0.048264221921183
0.043314533781997 0.141010737872650 0.048370162469515
0.044580458548172 0.141033632444136 0.047809590925937
-0.042954234907027 0.143506916756229 0.048326316166697
0.042889695210450 0.143621511535533 0.048326845092879
0.044261661673889 0.142892062808404 0.048145956723842
-0.042443647584240 0.146080269158720 0.048281560098460
0.042482344438007 0.145992615673808 0.048290793591727
-0.042014498002257 0.147656073986995 0.048399019565455
-0.041492318044034 0.148880024820885 0.048259351540157
0.041281246900778 0.149510528651201 0.048380639649440
0.041782375598217 0.148229476432381 0.048287435381060
-0.042094398769904 0.150751550032550 0.047737831000859
-0.040609210400081 0.151258072775092 0.048470955407305
0.040582800164445 0.151356245944041 0.048371589346424
0.042074565732757 0.150816476053308 0.047654742891209
-0.039823593288993 0.153522667278303 0.048345101450560
-0.039033641035659 0.154766730088594 0.048437200718636
0.039555905617613 0.153933618301389 0.048167757695164
-0.039293919129184 0.156828220913936 0.047423791787679
-0.038178985230244 0.156409216888546 0.048225235929436
0.038071996862492 0.156566786966400 0.048396009655995
0.039317017142101 0.156105223780762 0.048066530401100
-0.037264305173939 0.158308772549644 0.048402382022165
-0.036092488040351 0.159796254723281 0.048230486399134
0.035959373202129 0.159960133099059 0.048535152875183
0.036968870853734 0.158695837805057 0.048230901636031
-0.036919543528492 0.160726270481816 0.047323876491807
-0.034943772295276 0.161435514348798 0.048313403366949
-0.033969133569194 0.162609898394374 0.048300808940875
0.034796940024677 0.161620811180192 0.048301195825808
0.036743103902776 0.160987841112994 0.048350573897584
-0.034746642437070 0.163628937167968 0.047356830485554
-0.032634519617167 0.164270535320352 0.048209187799519
0.032410298043217 0.164423199304111 0.048484784113816
0.033831997722009 0.163469511717715 0.048447201791102
-0.031943198723816 0.166677866858495 0.047066818132495
-0.030130858091046 0.166856786922155 0.048307774877845
-0.028707860440001 0.168092286856355 0.047821559910111
0.029719779527503 0.167162374660843 0.048460334964177
0.031329111557563 0.165993855323540 0.048015826990508
-0.028877644624100 0.169611046618708 0.046628884794629
-0.027422046167438 0.169156977755135 0.048356075700033
-0.025878276315898 0.170374912357248 0.048365852896116
0.025627564433953 0.170540162901441 0.048522991526359
0.027190350288326 0.169384454595479 0.048264639576884
0.029322445193092 0.168687391731529 0.047932280921805
-0.026509529132941 0.171382214639927 0.047794112381425
-0.024501428883021 0.171605380996508 0.048289551334463
-0.022490366045901 0.172619543365160 0.048353314711130
0.022276385606847 0.172720111568013 0.048584134077275
0.024152396609043 0.171643596547232 0.048355615993098
0.026328354165319 0.171508209458698 0.048067709535575
-0.023594423372856 0.173395719438500 0.048058461988621
-0.021520202655409 0.173750238230313 0.047862857018514
-0.019489810766377 0.174372222710171 0.048273463149244
-0.016931034532373 0.175413379762858 0.048290700780613
-0.015714798680812 0.175915850413905 0.048486197668476
0.016744182880260 0.175521528437976 0.048374176660086
0.019564807050922 0.174307121123863 0.048151097933689
0.021107316673202 0.173567237715992 0.048316466102840
-0.017563052108287 0.176508280742813 0.047334723699031
-0.014524768088129 0.176445072783180 0.048385580878893
-0.011789498701345 0.177216913618058 0.048389452846203
-0.009196235847612 0.177861015166460 0.048365046505236
-0.006489732033036 0.178363582601650 0.048234180335228
-0.005201739566922 0.178521602614165 0.048948022542785
0.004776231065911 0.178544076761016 0.048620272069971
0.006323632328497 0.178370800070498 0.048386034601425
0.009003180040639 0.177903415543257 0.048358841156775
0.011704665364629 0.177294007289813 0.048401364888188
0.014011414290626 0.176612985045361 0.048395163336337
0.016931866593424 0.176733169009851 0.047608187047838
-0.011167496512166 0.178661941271390 0.047262925088443
-0.009375342944656 0.179051032779980 0.048007177241363
-0.006316151996384 0.179677559638860 0.047675731296751
-0.003968233723739 0.178701075580449 0.048454389015754
-0.001629441292358 0.178881941037046 0.048246105656443
0.001113246542894 0.178884485025029 0.048394304346382
0.003601683016971 0.178726599566596 0.048256382860742
0.007002635499505 0.179419653129749 0.047792262963790
0.008968972104098 0.179049789877676 0.047676306637642
0.011283882858167 0.178611629453466 0.048370963345345
-0.014179296721598 0.092492003379168 0.050457578053416
-0.011957448235013 0.091906224969737 0.050410000733678
-0.009388595799387 0.092127240745325 0.050490934026852
-0.006635103360332 0.091690894050319 0.050360842670297
-0.004103029705990 0.091385771771771 0.050381741936275
-0.001393055505591 0.091003614732613 0.050396955447737
0.001170958022608 0.091072709386886 0.050309712862859
0.003824733439093 0.091198100585063 0.050431182011653
0.006194127739648 0.091462763962443 0.050361183363237
0.009044372032804 0.092131537394989 0.050261864353711
0.011318084815984 0.091914665310528 0.050310348909225
0.013832319429906 0.092362045602180 0.050322341922648
-0.019682129298748 0.094745228492914 0.050237493749213
-0.017051773936117 0.094592815000749 0.050460266371077
-0.014549892894217 0.093893898223696 0.050381669308624
-0.012153448137672 0.093167492989088 0.050433342417927
0.010081463444789 0.092761841412249 0.051387176455487
0.011517569511796 0.092998001587711 0.050299527610089
0.014096884835616 0.093751079644754 0.050370349106082
0.016876513119087 0.094539560415036 0.050304110330050
0.019530456837426 0.094772304796793 0.050515605773111
-0.024657842505373 0.097575534393812 0.050071909303535
-0.022076761189659 0.097155042568575 0.050465094239191
-0.019728602628384 0.096177006862830 0.050251784045751
-0.018205129895892 0.095398758101591 0.049803446871018
0.017960762971904 0.095378851196800 0.051420425359426
0.019266969573671 0.095923249953622 0.050306610459682
0.021822045371587 0.097060411913580 0.050296056135288
0.024217676056075 0.097284679965613 0.050584120981431
-0.026522704827711 0.100046159813225 0.050443533874774
-0.024895621148572 0.099123423731484 0.050416185539530
-0.023252562992005 0.098149681179926 0.050432521480357
0.023033669608038 0.098051986329817 0.050047573988772
0.024617732666496 0.099014247627000 0.050309043174683
0.026740676779297 0.100109042287490 0.050489629870562
0.028522032848502 0.100391036127014 0.049792048484469
-0.029524888741181 0.102330006641400 0.050255872241688
-0.027801101277387 0.101412964673598 0.050321141823192
0.027647739743182 0.101302110939277 0.050481121369030
0.029302542527951 0.102289888001348 0.050257078652794
0.031403662361249 0.103044510017720 0.050117154604913
-0.034002062891291 0.105668543794538 0.049468619587394
-0.032133316015693 0.104939666532047 0.050284776344537
-0.030576576938450 0.103960534889488 0.050409305335974
0.030325432993797 0.103670673108109 0.050607751773523
0.031938317609983 0.104821441212013 0.050311828804345
0.033865112494037 0.105546468739350 0.051207198159439
-0.034449509122821 0.107619400998732 0.050416915551984
-0.033230352024119 0.106791846807523 0.050437965098349
0.033016608886789 0.106550515503499 0.050389722104993
0.034281197777336 0.107583509550711 0.050384194026728
-0.037005604922699 0.109636941159866 0.050912607553106
-0.035478489285135 0.109508394715954 0.050380844029786
0.035262398136116 0.109452433751553 0.050346605989998
0.036808995017038 0.110349200745554 0.050273688349679
-0.039212758293665 0.113260497101157 0.050172765878301
-0.037488068983778 0.112303943682201 0.050385050381201
-0.036468575603315 0.111071495480228 0.050224226372275
0.037258158524737 0.112213580892224 0.050442292215489
0.038978179998572 0.112859498685160 0.050615840534509
-0.039716080240863 0.115375505818134 0.050223379441707
-0.038708534943603 0.114901767733881 0.050191726707928
0.038340835301560 0.114193388352802 0.050385456644784
0.039327034138921 0.115188932128509 0.050190255355982
-0.040097350932533 0.117538985651210 0.050413402640297
0.040101190787053 0.117440207234439 0.050398982080576
0.041670960962718 0.118438595164492 0.050775511597647
-0.042269827941115 0.119990555077598 0.050430234405964
-0.040944222734630 0.119918832045171 0.050427774531291
0.040964071516894 0.119979187154359 0.050394156525460
0.042022311450385 0.119880938999397 0.050521620096106
-0.042274279724535 0.122980156409044 0.050422574689770
-0.041608394374805 0.121897999475905 0.050387214972713
0.041392625336198 0.121486368159276 0.050682760849033
0.041912402213667 0.122505811653097 0.050276032859255
-0.042605265015277 0.125120805815339 0.050352389370724
0.042677215937554 0.125267433122380 0.050344956496613
-0.044519965248239 0.128674811960157 0.049270793311801
-0.043148474033345 0.127883182702414 0.050276428922542
0.043053938230744 0.127564821122891 0.050211826844002
0.044275609643044 0.127590543027604 0.051444039800773
-0.044686265387297 0.130533134479399 0.050729481370198
-0.043470630181659 0.130467760627733 0.050353543454588
0.043427629957751 0.130383796497094 0.050350152165975
0.044620655420216 0.130250764975948 0.050227515057160
-0.044861062213536 0.132978985616399 0.050769896121404
-0.043591524790474 0.133152993493590 0.050398608267718
0.043650710240263 0.133181309259204 0.050362942721340
0.044847365553165 0.133350899048420 0.050392936114708
-0.044987938619402 0.134804336043888 0.050906879313544
-0.043690545590694 0.135666918023926 0.050403868287542
0.043703935590929 0.135697334000937 0.050358521972756
0.044957278077046 0.135390250148861 0.050418448830598
-0.044824427087981 0.137779261317160 0.050632367390435
-0.043602215251506 0.138216798790661 0.050325058769791
0.043581675195064 0.138277391834320 0.050437562935444
0.044790398976724 0.138152868924709 0.050223877237430
-0.044592734368687 0.140878038590778 0.050771711332446
-0.043324786414803 0.140810100515834 0.050274829762299
0.043308801207795 0.140851882208209 0.050464829396199
0.044594230879158 0.140665731108156 0.050727457956031
-0.043029148178698 0.143317374715110 0.050278797817065
0.042947162539195 0.143508744036488 0.050339808263808
0.044339667827198 0.142521363515257 0.049869912608530
-0.042372610123668 0.146235561084230 0.050380458319335
0.042381390350243 0.146121538784039 0.050510444166887
-0.041902164807301 0.147810614976834 0.050252494704733
-0.041474598808644 0.148865472116395 0.050335911461879
0.041280611196547 0.149491007964004 0.050560979765056
0.041697561023887 0.148374487517084 0.050166100962301
-0.041934124045306 0.151175395534874 0.049714641942850
-0.040603922589679 0.151293132048555 0.050479881731804
0.040616412563436 0.151143955226623 0.050296530055442
0.041504365547575 0.152333271513104 0.050377038149923
-0.039723192183605 0.153677753676014 0.050246318834341
-0.039022713869247 0.154810501806477 0.050201646473666
0.038813988436625 0.154964939589240 0.051294762625217
0.039549186037597 0.153748835129130 0.050096320476194
-0.040111325842371 0.155335385992188 0.049821940487358
-0.038170106819347 0.156555123416951 0.050397648314058
0.037949728355823 0.156812102465794 0.050546609706714
0.039046403079188 0.155947705743168 0.050652530762583
-0.036979731574260 0.158550299139376 0.050567883059124
-0.036168520123893 0.159699879436645 0.050407916777692
0.035985148624295 0.159922729108135 0.050217540805256
0.036911875867488 0.158781254824016 0.050439526456271
-0.034900501747566 0.161433734880442 0.050383802904015
-0.033816386465649 0.162752703409694 0.050300817990555
0.034803875445257 0.161584560982568 0.050295420236854
0.036545857566518 0.161244000685468 0.050564655400053
-0.034867074492165 0.163468506004789 0.051305895456562
-0.032508490934308 0.164348172982821 0.050438817447752
-0.031369876868767 0.165493826021524 0.050450448824249
0.032541504014947 0.164288975823620 0.050261093943874
0.033963001607770 0.164129056508188 0.049978836425547
-0.032337737399285 0.166020960153023 0.050584543384556
-0.030196236616606 0.166819208592657 0.050579739626164
-0.028739591461110 0.168064194349905 0.050777906518270
0.030028264465796 0.166899807022520 0.050483200387125
0.031388738283422 0.165971492483603 0.050429120123797
-0.030081417135463 0.168540814907872 0.050056445154754
-0.027544704980734 0.169144087335436 0.050253404898227
-0.025747084049206 0.170469464115553 0.050324527700409
0.025677322006303 0.170505135930638 0.050590888830128
0.026998485305833 0.169539265049345 0.050391667469147
0.029017937816633 0.168996225110727 0.050603984035889
-0.026474241403970 0.171406082344648 0.049657414163395
-0.024347825974649 0.171454850051229 0.050182902105541
-0.022467944665108 0.172592603905466 0.050354130546882
0.022366339312249 0.172661677548494 0.050494001257007
0.024402327061966 0.171568261304562 0.050255693201474
0.026253163639037 0.171563975188040 0.050686614027426
-0.021206716614298 0.173583518834405 0.050387590020307
-0.019667304726738 0.174187754964640 0.050367929146441
-0.017182856718337 0.175330929352463 0.050354582422511
