ply
format ascii 1.0
element vertex 870
property float x
property float y
property float z
end_header
0.042060929648340 -0.006893680028795 0.495445630236425
-0.042175408019739 -0.002321568725280 0.495023664356937
0.042377505803872 -0.005571344364288 0.494658978559959
-0.041954331219487 0.007227680263215 0.496687789156981
0.041494773031441 0.009147339294169 0.493874583009568
-0.040827920079499 0.010984598039235 0.496901871911564
0.040599465999667 0.012595207890104 0.493924157782545
-0.039248342437774 0.016136162931290 0.497120790715799
0.038532127200485 0.017765025963579 0.494816069986727
0.037392642219256 0.020165474947989 0.495305081137597
-0.035466771047677 0.023397906327381 0.495911383375473
-0.033862664409572 0.025372234719660 0.494829576360009
0.034001876326183 0.025407924193109 0.495498319111686
0.034148470231808 0.025190857930520 0.494655486559769
-0.032377700682796 0.027092221444856 0.494574110279487
0.032908663478071 0.026898028324142 0.494701419995553
-0.028500522991218 0.031549630987898 0.494413112037633
0.027834104922679 0.032069364996651 0.495829500562298
0.024178831496183 0.034787710793108 0.496079032599716
-0.016756904501892 0.038972067202173 0.494901954440629
-0.007487801261876 0.041577454297272 0.494463734376414
0.013860007760662 0.040009682975274 0.496182441388809
0.015642746820699 0.039464476299178 0.494754196288917
0.000443116238861 0.042356515410717 0.495463699561278
0.002960269752233 0.042269228532490 0.496373153312649
-0.007322266815436 -0.042270841234978 0.500795704444425
-0.003310294937409 -0.042852710547546 0.500108607414161
0.000137874402123 -0.042983156988759 0.500552787501445
0.003939921893295 -0.042588713111217 0.500663796584350
0.007151283532612 -0.042308404287728 0.500849599462502
-0.019169920121321 -0.038361029087439 0.500470358913406
-0.016276119153198 -0.039601544677668 0.500503673019762
-0.012140804722100 -0.041116465009492 0.500549067344674
-0.008218956886672 -0.041917559262447 0.500159688339538
0.008824442101556 -0.041944761206769 0.500459451446652
0.012129594834331 -0.041081855933411 0.500643471520612
0.016007404859813 -0.039747366310350 0.500402852972446
0.018951920496339 -0.038519120109559 0.500865710095262
-0.026193570008148 -0.034312661560961 0.500903942431590
-0.024258027598701 -0.035262291269960 0.500436541332346
-0.021030850182235 -0.037426201539353 0.500800250485209
0.020482561532663 -0.037639470518123 0.500672562823389
0.024056929227674 -0.035453153589607 0.500547817277387
-0.030200013735521 -0.030544349838107 0.500114304826532
-0.028094782927266 -0.032547086648512 0.499911667767730
0.025848002015604 -0.033995395247240 0.500427998154071
0.028337911779348 -0.032180844867249 0.500668923178307
0.030130999480593 -0.030487279768550 0.500734337689263
-0.032050056326923 -0.028280057850031 0.500234345213460
0.032480115122429 -0.027910183474091 0.500573557528582
-0.035451428601815 -0.024038495206741 0.500565984482576
-0.033897724931602 -0.025887956246699 0.500257012880431
0.033886612408887 -0.026072284154199 0.500446591892447
0.035498576029417 -0.023852585287518 0.500440643236334
-0.038518206063944 -0.018808901351456 0.500809627595286
-0.037392973098397 -0.020676323574901 0.500397026009750
0.037309051616659 -0.021056510999291 0.500563862027336
0.038266042041000 -0.019194189568484 0.500763719651097
-0.039468680224428 -0.016247186855647 0.500392276497381
0.039793878562383 -0.015713167040730 0.500711086533281
-0.040860928392790 -0.012055086973952 0.500591021067697
0.040981917404594 -0.012179961922165 0.500766371346541
-0.042402755772841 -0.007018428123840 0.500333534634475
-0.041686440718050 -0.009344308235601 0.500428526669202
0.041715954168238 -0.009145363519489 0.500932949578337
0.042299837323156 -0.006611523472620 0.500933408272805
-0.042668237569649 -0.004299360332062 0.500667604827068
0.042731732566202 -0.003948219461981 0.500784037554599
-0.042512661190894 -0.000080127038195 0.500254915945597
0.042665009313483 -0.000502526756851 0.500892997856605
-0.042447024075864 0.003294029108185 0.500098919285298
0.042403740970806 0.003721281029476 0.500781710673388
-0.042296742119370 0.007621468062606 0.500119155135970
-0.041782261420805 0.008465305121735 0.499310012475306
0.041685860628413 0.009040526558743 0.500727118889612
0.042147407793305 0.006949295933383 0.500637732686766
-0.041243478151673 0.011310520869613 0.500458284356194
0.040962542636083 0.011975293352914 0.500814796698074
-0.039368530159684 0.016476724078993 0.500651722932368
0.039717718059765 0.015457750805754 0.500666295029857
-0.038534745632742 0.018507117712191 0.500891554336068
-0.037157051834742 0.020728623802363 0.500415567892232
0.037423020479074 0.020473084468011 0.500660848683065
0.038270794018865 0.018842087468790 0.500754038904437
-0.035422568890507 0.023750410324296 0.500686425514976
-0.033700266952136 0.025692225784350 0.498878579087044
0.033948570972318 0.025577026015601 0.500466429000116
0.035157387860497 0.023943864541045 0.500432111235201
-0.032483803880336 0.027325513615621 0.500358922430221
0.032585987112791 0.027412101383692 0.500670290262838
-0.030293752174782 0.030189478346389 0.500506877197584
-0.028177598526925 0.032190727103118 0.500025242489850
-0.025324968819872 0.033695853163456 0.498915033224083
0.025942187220205 0.033582550276914 0.500525703865335
0.028087362764131 0.031974312560760 0.500627553579348
0.030330117539469 0.029940256127671 0.500910969154914
-0.023869160926754 0.034999451784607 0.500124776842136
-0.020570280207639 0.036869593396107 0.499641481340777
0.021057522681163 0.036938188355303 0.500303248291318
0.023736012350723 0.035311242763839 0.500706429855512
-0.018816720434082 0.038288806311999 0.500416442306777
-0.016068987966765 0.039692899213326 0.500111441234232
-0.012132687309173 0.040702252874422 0.500250050926172
-0.008464617237037 0.041552074682377 0.500431739982785
0.009182297758847 0.041504802062362 0.500506561873894
0.011871665452377 0.040813343325432 0.500761258139475
0.016052781341562 0.039400182104442 0.500612942771205
0.018739882637912 0.038119268359842 0.500691299807461
-0.007063484000038 0.042024293785760 0.500893959165255
-0.004358599120402 0.042263629293409 0.500586340372316
0.000691139862983 0.042487733337175 0.500448426172876
0.004060508385086 0.042295189322285 0.500697362704731
0.007057167992794 0.042031989653530 0.500962035256189
-0.014419371243115 -0.042321953878525 0.505079499918896
-0.011509623234707 -0.042711705792065 0.503846663483877
-0.008055647894827 -0.043040360319164 0.503031066419103
-0.003986965713196 -0.043947641461841 0.503385651508669
0.000097510673529 -0.044042887320273 0.503194012649565
0.003760481157084 -0.043848678737004 0.503485853643943
0.007843688240624 -0.043213963303207 0.503342443821248
0.011496862224068 -0.042790047973174 0.504060978371168
0.014131151038248 -0.042287774895393 0.504890854078663
-0.022644068345279 -0.038458073985785 0.504922387006708
-0.019772663406232 -0.039355990925630 0.503366204678916
-0.015980780856041 -0.040941206030491 0.503362549652289
-0.012571556541086 -0.041648128602459 0.502128583965931
0.012550944546703 -0.041650313989434 0.502338149002720
0.016138813035194 -0.040940266237113 0.503364408862989
0.019924806875783 -0.039241912781066 0.503450133096211
0.022496528080392 -0.038426804892501 0.504663770192274
-0.027295343003646 -0.035016373470891 0.504150844230091
-0.024102141742113 -0.036849568593258 0.503386590528501
-0.021460903758202 -0.037881309381885 0.502223408596808
0.021413082562381 -0.037848101530251 0.502138910046840
0.024271452920939 -0.036548987767473 0.503079100778513
0.027045634855433 -0.034921526988947 0.503900265919061
-0.030972002279093 -0.031457041292090 0.503547294085425
-0.028869834182868 -0.033236544230677 0.502847368790787
0.028628155156155 -0.033008435766683 0.502626915999912
0.031003508899482 -0.031306758558169 0.503619696512713
-0.034840834788256 -0.027086632953666 0.503769864779283
-0.032976292375706 -0.028662574218507 0.502955303996332
0.032839299470675 -0.028905698492604 0.502908020560228
0.034639109263637 -0.027047680817651 0.503233891116864
-0.038204385039593 -0.022932577047302 0.504815094097275
-0.036454516580522 -0.024326580619853 0.503084221533567
0.036540312451200 -0.023994708659867 0.502941788016076
0.038316467104252 -0.022683938503282 0.504796917071336
-0.039051034732467 -0.020037988677851 0.503226181709047
-0.037673492043132 -0.021310338869116 0.502035647623826
0.037620889830193 -0.021522088795721 0.501852142057539
0.039137169186461 -0.019937705091009 0.503381264542579
-0.042184926751871 -0.014217000571309 0.505006667579034
-0.040467073606554 -0.016356370092864 0.503143109051129
0.040640551702136 -0.016411086596188 0.503245123692433
0.042202949889438 -0.014525036617152 0.504959020926069
-0.042564485126767 -0.011915717115384 0.504070553490361
-0.041473854914434 -0.012486084653977 0.502377049702311
0.041573440984557 -0.012641127601622 0.502468069217563
0.042557569450955 -0.011941341646762 0.504346325168557
-0.043050305217862 -0.008388207038331 0.502965900932063
-0.041857538515289 -0.010073781901592 0.501386255882564
0.041861330249565 -0.009801754398968 0.501619906186214
0.043126815203819 -0.008021775143813 0.503493899866866
-0.043677605305684 -0.003913983485447 0.503136907280179
0.043684731947564 -0.003862604807583 0.503227876641154
-0.044003836575312 -0.000185337693409 0.503799865130464
0.043689337051622 -0.000258342143517 0.503198607461548
-0.043756217302616 0.003995382842782 0.503545692667490
0.043462294759574 0.003844412584751 0.503281054909988
-0.043160796719958 0.008187095808816 0.503018830440373
0.041857619573840 0.009555169228198 0.501422939116746
0.043103901062128 0.007807695891699 0.503377564872927
-0.042640450544375 0.011374809041879 0.503744444297592
-0.041349792833088 0.012993191784229 0.502040601350498
0.041587325494073 0.012030701190969 0.502271314413997
0.042477680933747 0.011334578297395 0.503902981056326
-0.042149548429706 0.014382239143660 0.504900538231094
-0.040736972629601 0.016053851966071 0.503285947185337
0.040674137798165 0.015946638381281 0.503236203419297
0.042100457802790 0.014143631192873 0.504698772772094
-0.039266586217467 0.019655254560483 0.503557285772600
-0.037571717446417 0.021158741714203 0.501858039153533
0.037633852258974 0.021355847643770 0.502163117165390
0.039094164614534 0.019697366159560 0.503483779350147
-0.038219097244374 0.022233153312357 0.504434120805987
-0.036567235590878 0.023850848962079 0.503162699793475
0.036186384340959 0.024148844225076 0.502952469752176
0.038327577002768 0.022223181035652 0.504712203244432
-0.034633537195096 0.026868607898081 0.503727201446688
-0.032824635225744 0.028473589957263 0.503002180358824
0.032767173960794 0.028545787488973 0.502821839638044
0.034921398452010 0.026833354903073 0.504072733460848
-0.031066404451509 0.030981684055362 0.503659416793306
-0.028923049793814 0.032797793259906 0.502828600717998
0.028769957829112 0.032595214685192 0.502823655305083
0.031093097571760 0.030778403624809 0.503553238020015
-0.026790281906151 0.034673738512593 0.503297460701432
-0.024298198052886 0.036216594586609 0.503256945990100
-0.021546256290549 0.037296558335448 0.502140538089555
0.021164236830101 0.037471671250191 0.501924249034882
0.023916137764282 0.036344453601172 0.502944130212855
0.026836855746161 0.034550584404877 0.503637413837379
-0.022450117039771 0.037973657796078 0.504649993290356
-0.019883486554645 0.039023340789336 0.503749159996624
-0.015783446419667 0.040824419515447 0.503171761405325
-0.012412744913191 0.041538416556052 0.502369350345274
-0.009884573466922 0.041714796454890 0.501509498917153
0.009356570553954 0.041799238283302 0.501233557969622
0.012238261355016 0.041374551769803 0.502234130284140
0.015774197475349 0.040601146438091 0.503150454417535
0.019936251978590 0.038859222250813 0.503530462388976
0.022280688404867 0.038122380553537 0.504513963504110
-0.014158213139859 0.042017470582460 0.505054980581046
-0.011664019529655 0.042326979747094 0.503850224990075
-0.007941203397913 0.042996787299959 0.503602414190669
-0.003963424793359 0.043356607963141 0.503093290661476
0.000015841188670 0.043485189163160 0.503079684369814
0.003892135869876 0.043434269273460 0.503216695605548
0.007987165726572 0.042844747007378 0.503236834707777
0.011842356090858 0.042389820480525 0.504209766758219
-0.014712936756089 -0.042379377894472 0.508188975640636
-0.011966335315399 -0.043001418521989 0.508627930679306
-0.008014879706585 -0.043830546577867 0.508607044578934
-0.003991384281588 -0.044380422728915 0.508684485330180
-0.000001224804396 -0.044586280027737 0.508614995076411
0.003979352625795 -0.044499620642088 0.508640950713493
0.007978373738175 -0.043855929607577 0.508657829662595
0.011858038862073 -0.042983575212889 0.508703801949947
0.014674148855132 -0.042388749345840 0.508225285737462
-0.022689548824683 -0.038540251841260 0.508564187674498
-0.020133708659836 -0.039731947428414 0.508634683784370
-0.016162850302367 -0.041491258052683 0.508749141393556
-0.013699270984892 -0.042049237931968 0.508916063491770
0.013640236211852 -0.042045080179353 0.508961222003262
0.016334403888065 -0.041433552121279 0.508710964032558
0.019974030929123 -0.039888470548765 0.508618415082275
0.022644423977318 -0.038537522764647 0.508432400199313
-0.027395882375594 -0.035211253903071 0.508605262699269
-0.024462839316577 -0.037170647185307 0.508761383652432
0.024492079756355 -0.037197136670137 0.508723292272520
0.027279869401678 -0.035273687757981 0.508590558601323
-0.031412902709018 -0.031548094792504 0.508645880337971
-0.029186645056152 -0.033517946120426 0.508807265441729
0.029242729817768 -0.033530583768928 0.508747663938681
0.031405390109045 -0.031697027380441 0.508579660753681
-0.035018973403849 -0.027568937788517 0.508665216679706
-0.033340014127046 -0.029326428476754 0.508770511123281
0.033308319507651 -0.029390913288441 0.508746432478047
0.035109131321561 -0.027428860272132 0.508642613242355
-0.038394015708025 -0.022873687593859 0.508409441773114
-0.036975944542374 -0.024678611975543 0.508749320279457
0.037001186749619 -0.024546311245135 0.508728951880153
0.038398682041168 -0.022807097310594 0.508298649813368
-0.039533932727535 -0.020278595144006 0.508707138643933
0.039679715713951 -0.020189932967928 0.508618105685967
-0.042200164693598 -0.014761953028421 0.508504862228610
-0.041262683190509 -0.016338561070470 0.508759442390908
0.041234922378126 -0.016379008925610 0.508738320169422
0.042237095142690 -0.014734399848282 0.508250167317379
-0.042773786544179 -0.012130394103425 0.508730316554488
-0.041882016732963 -0.013848635544833 0.508848356519643
0.041902778897212 -0.013872620575892 0.508818055986897
0.042737966257663 -0.012156466470943 0.508657045003640
-0.043647339528013 -0.008142522526397 0.508728339037182
0.043658303269456 -0.008128871667899 0.508675371795214
-0.044170660196236 -0.004173988691059 0.508727402181797
0.044254247060817 -0.004141369132307 0.508620255407088
-0.044398818215236 -0.000232681845545 0.508669855165772
0.044383229545542 -0.000139735132537 0.508636441488059
-0.044287672252444 0.003836975980766 0.508629729238473
0.044160909380466 0.003798841716549 0.508661920874424
-0.043653200452277 0.007796913534846 0.508673827245160
0.043672673442804 0.007926611852092 0.508640952007761
-0.042752814742715 0.011733749874509 0.508661854436365
-0.041858207986117 0.013394615272743 0.508899555807252
0.041872729915621 0.013381505873354 0.508861073911115
0.042798425653360 0.011793733592111 0.508608263097913
-0.042180933893862 0.014373327213822 0.508300866668365
-0.041256812427713 0.016067949292404 0.508717558112184
0.041266281573802 0.016126634193387 0.508682673428286
0.042245834971824 0.014502606508633 0.508035732452665
-0.039613482937188 0.019851600150468 0.508656926618301
0.039585310398012 0.019850395143808 0.508610172089445
-0.038334037093815 0.022383325888472 0.508487610457818
-0.036982486387067 0.024250722532596 0.508762920081544
0.036944692513165 0.024409639406339 0.508653075130174
0.038398077839900 0.022555857989428 0.508414217914162
-0.034966187031597 0.027169042197520 0.508645737089109
-0.033361252583785 0.029050408353551 0.508764097506277
0.033330500522126 0.029039890713417 0.508758108196725
0.035029266160147 0.027203883725141 0.508603163622140
-0.031496741138967 0.031222564189509 0.508602076034503
-0.029229706365449 0.033169488926903 0.508706541214156
0.029288123406021 0.033077620740783 0.508705859971202
0.031381294289149 0.031175943034513 0.508599578588923
-0.027356957781521 0.034856997892543 0.508653350747915
-0.024391599855888 0.036818627398562 0.508706485050043
0.024456929411847 0.036853313058459 0.508610053015725
0.027469773288483 0.034803951748308 0.508560857395347
-0.022528777840820 0.038171480973771 0.508522812366743
-0.020107239709480 0.039463961398914 0.508617613140392
-0.016157750819274 0.041099592164507 0.508685068621143
-0.013545329068409 0.041722943847499 0.508801233953182
0.013557097813412 0.041698670307181 0.508882770700555
0.016296208808931 0.041077943430450 0.508706822875834
0.020081258470556 0.039378331365772 0.508648126245080
0.022603619171544 0.038285416390328 0.508494962174452
-0.014513580348884 0.042028449222415 0.508259894289646
-0.011960398518810 0.042576548969143 0.508607175607834
-0.007954375876663 0.043495157450246 0.508575165673046
-0.004063399407139 0.044046977949574 0.508579215028948
-0.000041356602312 0.044241905479709 0.508574785441408
0.003994247990147 0.043970133390862 0.508679139756675
0.008091652708916 0.043469664541824 0.508628421788449
0.011862213818980 0.042663322559343 0.508480083221305
0.014638717394372 0.042049437096181 0.508258699863912
-0.015143105935142 -0.042468992602124 0.511466084780506
-0.012304958595661 -0.043312351071283 0.511149775133669
-0.007887184363328 -0.044382622006849 0.510929810331730
-0.004210452140219 -0.044856338574347 0.510803056753135
-0.000090492859204 -0.045075527560628 0.511303363281769
0.004060365925396 -0.044896678180308 0.511141160022226
0.007878748625139 -0.044355395282890 0.511300906513197
0.011868693298710 -0.043482604755662 0.511003293633576
0.014900276481259 -0.042509951073007 0.511100767080219
-0.022994193772706 -0.038803030183839 0.511177514145726
-0.020098678940460 -0.040276950368516 0.511260415303937
-0.017106731398973 -0.041737535576723 0.511746531368554
0.016820653408790 -0.041759050694868 0.511081505274642
0.020263157418479 -0.040241726440273 0.511033765812997
0.023136747536869 -0.038600134127862 0.511009298958902
-0.027821260829593 -0.035407553564794 0.511305727010890
-0.024778550195052 -0.037593703494251 0.510864944148913
0.024934307521789 -0.037530720870633 0.511089745593363
0.027447519057911 -0.035702377278915 0.511101431289655
-0.031824366382703 -0.031775108856355 0.511218127633630
-0.029702008761902 -0.033897279530709 0.511127021879224
0.029617513930802 -0.033867049937439 0.511096227837093
0.031794028262215 -0.031898621159065 0.511253789725104
-0.035300831168750 -0.027901705437050 0.511097082822602
-0.033713148298102 -0.029886290033645 0.511102024725503
0.033678356481482 -0.029804565935137 0.511479647888479
0.035295549876236 -0.027893887923776 0.511437346910239
-0.038615988149974 -0.023163670743746 0.511606722396514
-0.037391967898578 -0.024981075796714 0.511188630660424
0.037435017722202 -0.024955280636250 0.511363131671707
0.038435263578309 -0.023278907799301 0.511032206709582
-0.040142873884933 -0.020163502056160 0.511271150107073
0.040058295761606 -0.020461326289902 0.511300630353814
-0.042351981667185 -0.015064434565806 0.511014495331132
-0.041608088875912 -0.017162441970660 0.511485758384214
0.041507631661560 -0.017154921411597 0.511550609604126
0.042352042243653 -0.014993770439544 0.511127806086698
-0.043132454891644 -0.012438587932245 0.511066383291803
0.043223742631056 -0.012357991285448 0.511373810527872
-0.044199396898881 -0.007996571786317 0.511256111771711
0.044143554803922 -0.008137516575702 0.511313860979935
-0.044653650382450 -0.004395688868124 0.511222281356021
0.044734945675691 -0.004059811924555 0.511069017956709
-0.044873356301447 -0.000297806493822 0.511206342202767
0.044907820586436 0.000256283032781 0.511288798357114
-0.044698635459564 0.004080352403233 0.511189609898908
0.044714870353084 0.003504732906542 0.511233650895828
-0.044177681692528 0.007602271728382 0.511060171332144
0.044195133568886 0.007593990741777 0.511157443955751
-0.043302769520874 0.011626956883885 0.511314352488220
0.043191086131813 0.011840351119949 0.511494118288185
-0.042304633360666 0.014714281573752 0.510920403697754
-0.041565470379824 0.016606114301759 0.510863352838023
0.041561831354748 0.016844261168301 0.511356910874189
0.042314431412544 0.014789818463828 0.511254796219840
-0.040053277264940 0.020062992585276 0.510844813515633
0.040149080068685 0.019749894879454 0.511058311065543
-0.038430069957193 0.022886784924917 0.511407090812539
-0.037334112079617 0.024724058262447 0.511321430402110
0.037283461239844 0.024732283877321 0.511505769262509
0.038662915766184 0.022712877654191 0.511365920812706
-0.035411618416733 0.027355777943442 0.511312762601355
-0.033706229554977 0.029368749160689 0.511167134961316
0.033698958320068 0.029499528163625 0.511782827508455
0.035269216256515 0.027545737496202 0.511142589231818
-0.031832341059920 0.031459997039966 0.511032678760341
-0.029662983508914 0.033426405738796 0.510799086759474
0.029729063235718 0.033469369546769 0.511493406311022
0.031724973534154 0.031473618157352 0.511395931910462
-0.027727198957885 0.035063398853648 0.511262638510421
-0.024835946169501 0.037184610197132 0.511065110392285
0.024817067411514 0.037165361577482 0.511072539836329
0.027848459898065 0.034995339327019 0.511095419437151
-0.022800272851442 0.038399613963178 0.511370138832240
-0.020128451706132 0.039919893375715 0.511028274258781
-0.016803469037426 0.041366103801792 0.511390301111604
0.016766687317599 0.041489030420766 0.511172893748527
0.019976980500723 0.039935495641543 0.511198574053262
0.023045168074132 0.038389948204260 0.511330469487119
-0.014717051935402 0.042181289200719 0.511250284891227
-0.012124145374315 0.043029747117274 0.511166923022947
-0.008005243796206 0.043927943793873 0.511096061823875
-0.003939965528111 0.044499394356794 0.511115867501222
-0.000179173044910 0.044662353341981 0.511399969915690
0.004279465996070 0.044443927484314 0.511242453167515
0.007697434828012 0.044011527011850 0.511336512275076
0.011906590666457 0.043030402972471 0.511058601785285
0.014886572525205 0.042144683244921 0.511453553769787
-0.014526154410986 -0.042364350954783 0.516362331131617
-0.011956624078114 -0.042875439343997 0.516813033050419
-0.008076336041003 -0.043702867216914 0.516856217678324
-0.003972108651788 -0.044336142042209 0.516841186616020
0.000030675080013 -0.044455739233530 0.516847450962639
0.004007914426390 -0.044352972334067 0.516865227647447
0.008056200546835 -0.043717556695478 0.516891748408046
0.011833020790318 -0.042920481916785 0.516796053689669
0.014530196685195 -0.042372201323229 0.516279493558936
-0.022584388342927 -0.038483991351461 0.516655901868501
-0.020068243894989 -0.039720539626345 0.516839139868314
-0.016130553595389 -0.041436868021981 0.516947008758061
-0.013658804476915 -0.042053994098343 0.517011888143689
0.013597186548802 -0.042043302213843 0.517042426578214
0.016226540397039 -0.041362508544504 0.516934208655417
0.019978503819257 -0.039692835979863 0.516885118234992
0.022544809593418 -0.038417520599475 0.516612528167323
-0.027285056228780 -0.035114669145155 0.516825812586125
-0.024381005913918 -0.037173337216162 0.516903938710594
0.024388291118040 -0.037159406555003 0.516935029262365
0.027166819774679 -0.035173019199877 0.516798573523369
-0.031353039816510 -0.031566943249066 0.516847765290587
-0.029176180969570 -0.033471861874251 0.516995336376955
0.029073608542365 -0.033509187151692 0.516927926774007
0.031254351893396 -0.031643184630190 0.516728871633478
-0.034984862960701 -0.027468292156703 0.516867047404274
-0.033270859730612 -0.029314440869709 0.516970944976330
0.033219369758544 -0.029318874045761 0.516931358913591
0.035021502200591 -0.027403970178207 0.516831853798617
-0.038338201526681 -0.022698343539234 0.516657266715371
-0.037006081154284 -0.024466193058799 0.516934577692571
0.036928380664737 -0.024463225445931 0.516890787825455
0.038353434179769 -0.022702213807291 0.516417380465203
-0.039539456654442 -0.020226791493224 0.516856732581311
0.039517531906976 -0.020205420606068 0.516805897344106
-0.042192987137234 -0.014655869693237 0.516666587943828
-0.041212918471742 -0.016271980174243 0.516960198780138
0.041174917186278 -0.016354135195625 0.516869643624443
0.042216598816504 -0.014777467809277 0.516171014260934
-0.042694681777245 -0.012076058962996 0.516858008604266
-0.041898121190562 -0.013849278085791 0.517022079823274
0.041893551998042 -0.013968548203666 0.517026844355850
0.042733687561086 -0.012146373498117 0.516757677276171
-0.043538159726023 -0.008126879942449 0.516815025038591
0.043627749966226 -0.008059412340568 0.516723657807055
-0.044116987366530 -0.004182299724448 0.516876196044729
0.044191134044845 -0.004018620984824 0.516648055494865
-0.044263802198241 -0.000171179730251 0.516895239467922
0.044459243626374 0.000004215371060 0.516520532822960
-0.044116442233478 0.003743850244576 0.516883596165652
0.044112354262707 0.003880729149241 0.516753977046121
-0.043589975024013 0.007797468974925 0.516819642249723
0.043591648663978 0.007816393782556 0.516765569121288
-0.042699283585522 0.011781228142559 0.516834867623027
-0.041854544430712 0.013436253188339 0.517012719708342
0.041900402733600 0.013419621197709 0.516989569015626
0.042704635545251 0.011630274881774 0.516710912033449
-0.042162645119919 0.014456546681270 0.516136891963039
-0.041257391642695 0.016010187171969 0.516895630473702
0.041212596214670 0.016015208932883 0.516867964044133
0.042247308550941 0.014586880870585 0.515587153787517
-0.039428877833145 0.019925827817213 0.516825260830431
0.039467218540531 0.019855958361798 0.516821393537466
-0.038283574526032 0.022339106550337 0.516785516497410
-0.036956737432252 0.024179043886208 0.516900707520364
0.036980683288887 0.024131312859477 0.516795974554214
0.038393329523403 0.022359372835221 0.516406024073606
-0.034915916116858 0.027076167248677 0.516755143617692
-0.033306339055905 0.029086747703268 0.516927972925539
0.033319678232589 0.029008533961447 0.516816179906145
0.034953612501779 0.027092979143783 0.516606100038440
-0.031396881533326 0.031099281736811 0.516785049398071
-0.029155404846523 0.033115370342721 0.516877650695518
0.029136594434066 0.033082387885400 0.516898084486505
0.031301400633181 0.031149967942544 0.516736872565395
-0.027269839847210 0.034848282633958 0.516761992518883
-0.024273594536190 0.036787405240579 0.516905839895269
0.024342201434659 0.036705979783530 0.516873448627009
0.027289744741760 0.034785419390826 0.516696366400010
-0.022530667669741 0.038125549518965 0.516612723167203
-0.020199622779516 0.039273710634067 0.516805822086189
-0.016083432291942 0.041045473071109 0.516910631699571
-0.013674715818328 0.041724605288681 0.517045406045755
0.013617085767605 0.041730525771111 0.516999171609389
0.016140093379555 0.041049684219510 0.516903389196040
0.020136825961561 0.039229423002576 0.516773406293704
0.022559207202879 0.038179407064448 0.516565309708548
-0.014469996786078 0.041999018891903 0.516463382421675
-0.011917926390519 0.042488728743329 0.516782797455042
-0.007994275999125 0.043398507408418 0.516828948189856
-0.004049126058604 0.043896822105852 0.516796735627933
-0.000015164950067 0.044145468690264 0.516841816625240
0.004042737917096 0.043900991512236 0.516787316312971
0.008014445788103 0.043430064093208 0.516812677789242
0.011960382744808 0.042463398180297 0.516769355209138
0.014495974170875 0.042038328755478 0.516059263164188
-0.014752725651093 -0.042413793276188 0.517671434854930
-0.011986811473838 -0.043105453204828 0.517627491231803
-0.008107641296938 -0.043992398694772 0.517564783892445
-0.003918748593798 -0.044583431599725 0.517625844795196
-0.000050802886357 -0.044749044356407 0.517598553736584
0.004160177687726 -0.044587355051264 0.517686558234671
0.007902269508546 -0.044050848208045 0.517700084217185
0.011951038608785 -0.043139741374326 0.517618882454118
0.014722834376915 -0.042445157425965 0.517843968968718
-0.022834007386018 -0.038657255492496 0.517651599313562
-0.020093046732553 -0.039983135616620 0.517630397699267
-0.016377852537326 -0.041572815112389 0.517508766630130
-0.013691719264870 -0.042046108943282 0.517517210809973
0.013596502476512 -0.042050316129890 0.517494064265801
0.016414023296531 -0.041527695810476 0.517541558672828
0.020043287854807 -0.039963761258130 0.517567987008248
0.022726691970633 -0.038614975779345 0.517698691959516
-0.027587098987394 -0.035255286201170 0.517606671179949
-0.024636744356863 -0.037241048068498 0.517569475134388
0.024571066775598 -0.037258060998815 0.517516136920738
0.027511012067893 -0.035277230758128 0.517596444312528
-0.031558572461983 -0.031660511742028 0.517593253427086
-0.029293754256890 -0.033586539355795 0.517491543859160
0.029305225148368 -0.033568965693074 0.517522191957802
0.031527149106259 -0.031696615326239 0.517557592841914
-0.035059217051401 -0.027778385619560 0.517529322734909
-0.033388770165969 -0.029524923765659 0.517530989394037
0.033372870857954 -0.029414405955485 0.517491279157556
0.035107364235998 -0.027654020030770 0.517560648652427
-0.038468496277915 -0.022945262840070 0.517563106123095
-0.037020260989046 -0.024804047010206 0.517507611392736
0.037091823089689 -0.024681594912932 0.517557481040667
0.038429052108715 -0.022912124527627 0.517624111095281
-0.039734797785493 -0.020238545756869 0.517530399497804
0.039768266547942 -0.020197310842023 0.517576921427803
-0.042240595969319 -0.014861515377092 0.517556313981646
-0.041345577438284 -0.016620957099215 0.517496812506734
0.041329468444973 -0.016452018884095 0.517518229446187
0.042302874656538 -0.014740396765062 0.517617054022480
-0.042872217844517 -0.012159003681638 0.517518127206358
-0.041914150423130 -0.013729048189192 0.517436921021429
0.041910464094773 -0.013694006876460 0.517534655475811
0.042906604766167 -0.012183244904917 0.517521135860804
-0.043804043599496 -0.008250176828653 0.517488558928198
0.043798261702708 -0.008107378683467 0.517572271026982
-0.044327129310006 -0.004172864036648 0.517484581984936
0.044346386295094 -0.004261130452835 0.517539528583031
-0.044516656385085 -0.000211810048241 0.517498815525989
0.044560601290402 -0.000146307522525 0.517510586789400
-0.044339665450949 0.003963062132284 0.517507725452125
0.044328981844159 0.003697958276819 0.517516284344216
-0.043789504677219 0.007833356676725 0.517513262719824
0.043833778383699 0.007764705799780 0.517552018489585
-0.042901738917235 0.011829414030166 0.517501869865702
-0.041852119210262 0.013531219494063 0.517625358918956
0.041853326574548 0.013424611426946 0.517497377223344
0.042886827548463 0.011779262022837 0.517540062720172
-0.042274879547695 0.014395722161331 0.517586045530038
-0.041274608241692 0.016224809189934 0.517512102683251
0.041378517471314 0.016188411407832 0.517556272083818
0.042237567591230 0.014607034169540 0.517593238310072
-0.039755024056851 0.019849141112020 0.517500896703979
0.039697380562330 0.019948166394673 0.517575004385183
-0.038428037743139 0.022511856206252 0.517583045011406
-0.037031630058071 0.024434888583927 0.517501838705465
0.037017218525631 0.024434628249197 0.517584875664760
0.038445186200027 0.022625589934237 0.517639801627959
-0.035150007094538 0.027212822010435 0.517534411974403
-0.033334990031932 0.029146631898229 0.517488897930421
0.033371760914388 0.029169050700690 0.517550425733267
0.035020261701194 0.027433108784291 0.517617995060612
-0.031424322019170 0.031430467892376 0.517587004392839
-0.029277926341180 0.033233099475229 0.517517522497426
0.029321507087978 0.033169442762381 0.517552738824961
0.031486472420416 0.031324200950030 0.517639467071377
-0.027395138963623 0.034997542808781 0.517560427647944
-0.024537583380455 0.036929612800894 0.517565505049696
0.024556178966433 0.036873924869513 0.517632606008874
0.027568375719135 0.034898115343759 0.517701588708116
-0.022663091271327 0.038253442944973 0.517670068037642
-0.020123768111122 0.039549783974075 0.517627881976510
-0.016388713222567 0.041168898543621 0.517617369206944
-0.013348941077613 0.041717861748871 0.517489363096240
0.013503170793229 0.041704231668150 0.517554318674539
0.016396400464925 0.041196718154981 0.517612421771960
0.020043467228730 0.039580479990707 0.517655223054627
0.022760895186040 0.038319897298389 0.517767799401329
-0.014677558608755 0.042123579147946 0.517759110910703
-0.012011470428707 0.042763748376165 0.517676749461951
-0.008010179183516 0.043634298686232 0.517668157300187
-0.004071260066336 0.044180665729012 0.517690114673112
0.000033345755632 0.044359880204310 0.517651014405568
0.003845435636657 0.044169600343419 0.517651687483483
0.007935041439148 0.043628386906352 0.517650556463181
0.011970148960159 0.042733528246641 0.517668400653232
0.014752240367680 0.042068047884021 0.517887591827605
-0.010580692176116 -0.050589065763442 0.525027023327677
-0.007828965727934 -0.051106100655417 0.524621230285220
-0.003919907593802 -0.051513162356492 0.524283351943721
0.000088664955038 -0.051751130126685 0.524230998251733
0.003907727632091 -0.051564583955293 0.524292206923920
0.007879555098541 -0.051062953432486 0.524616590448751
0.010676320106201 -0.050543583425165 0.525031803070503
-0.010791136099876 -0.048713860439076 0.524982752645793
-0.008021716748785 -0.048454290836998 0.524510656998362
-0.004027706317125 -0.048346948039186 0.524215908567548
0.000019145914345 -0.048249347428222 0.524149083003349
0.004032873859706 -0.048422680552981 0.524114421523566
0.008113711367693 -0.048659151213630 0.524489785459123
0.010797992294289 -0.048925932593357 0.525001566186686
-0.015046739124777 -0.042540132251759 0.523071600811131
-0.011766457732386 -0.043570006357136 0.523518539573562
-0.007726721738791 -0.044520717691907 0.524447558667296
-0.004027286881906 -0.045142521872441 0.524451474157770
-0.000028821112708 -0.045375058970026 0.524354824024168
0.003973581408827 -0.045128814893673 0.524403454671354
0.007818627708586 -0.044493966461028 0.524270773566980
0.011762564768141 -0.043551451604192 0.523513040402825
0.015118668256837 -0.042513854317881 0.523523110998280
-0.023074467784858 -0.038749077915532 0.523631321887795
-0.019904183049945 -0.040477172603129 0.523001878409935
-0.017282403861600 -0.041650578022601 0.523499056973078
0.016856121159026 -0.041872184650442 0.523047822383442
0.019908978171224 -0.040478451648330 0.522809848825175
0.023037082880484 -0.038796933347627 0.523273448474632
-0.027705441792334 -0.035593217113090 0.523057240113772
-0.025040023940727 -0.037531638107437 0.523569585888171
0.025061339088708 -0.037552794421380 0.523066498652517
0.027877904149407 -0.035467624156665 0.523475582410137
-0.031683039549688 -0.032059325820434 0.523262494693165
-0.029830827281931 -0.033812726653283 0.523289541709217
0.029726749706542 -0.033906802591663 0.523426492206088
0.031550208195880 -0.032213978212386 0.523282897328612
-0.035397024590941 -0.027883654294916 0.523237032393880
-0.033721200222710 -0.029887420451647 0.523182447539628
0.033687373690709 -0.029933593894246 0.523601594492223
0.035264696967629 -0.028104400238232 0.522808852256756
-0.038589545539464 -0.023279764727457 0.522872730334319
-0.037289503529501 -0.025266890010921 0.522950427761805
0.037352431026309 -0.025217374287384 0.522581646792389
0.038681958156751 -0.023136158011101 0.523363211930167
-0.040345926005964 -0.019953983487133 0.523202100574210
0.040305008033474 -0.020102999460363 0.522891436215378
-0.042393132598530 -0.015196709009345 0.523318160912674
-0.041630993007933 -0.017112633790119 0.523082220849638
0.041723966315487 -0.016909501805776 0.523121565062606
0.042352249303443 -0.015351272138138 0.523589364107171
-0.043380638752594 -0.011942658407874 0.523233310352770
0.043237020799821 -0.012444087901330 0.523412720925010
-0.044214413031370 -0.008322008038610 0.523092387434300
0.044216596189656 -0.008262865156900 0.523166857663310
-0.044768038746637 -0.004217089750420 0.523189960184381
0.044787162886896 -0.003933870982634 0.522956230103904
-0.044932724968408 0.000095846336047 0.523196480900134
0.044943900973324 0.000243453158684 0.523465974991647
-0.044735891687745 0.004219877247798 0.523075730801976
0.044757592466512 0.003927950437331 0.522947798682170
-0.044222052920823 0.007850146497113 0.523265207825643
0.044203345787720 0.007975483542957 0.523677707875826
-0.043252221578631 0.012010628589844 0.522940233443072
0.043412515749093 0.011401487102075 0.523392008419270
-0.042393790943955 0.014821975214160 0.523043233096986
-0.041656031343759 0.016665089384128 0.523771040263220
0.041610604779053 0.016729671476962 0.523299326519701
0.042456834003002 0.014614995339451 0.522558684189795
-0.040113780462727 0.020083871306086 0.523083718036799
0.040128455036657 0.020011198001556 0.523143921855381
-0.038556366348737 0.022955001693451 0.523179315794865
-0.037439569574298 0.024664288071491 0.523007120432383
0.037284758085433 0.024881056345657 0.523331433939707
0.038536736804686 0.022967460184986 0.523354386507404
-0.035604966944131 0.027242783463561 0.523152674486896
-0.033714151370897 0.029519808319879 0.522892277697677
0.033749247804445 0.029482427319028 0.522310133378812
0.035318872557900 0.027601571903828 0.523170133912695
-0.031664599710676 0.031672768700134 0.523281721310747
-0.029681615928228 0.033541812348616 0.523074984280952
0.029653887348675 0.033594582276702 0.522232555778837
0.031832794248589 0.031516717195177 0.523107164720595
-0.027652509082068 0.035228515858709 0.523354936859411
-0.024920006890696 0.037246298752225 0.522729875914621
0.024967978783184 0.037193474024312 0.523065608613518
0.027691175296272 0.035209279471488 0.523305588197803
-0.022934996989576 0.038445038758306 0.523041367321869
-0.019939528551563 0.040048306852605 0.522946246423762
-0.017068126450394 0.041327809868837 0.523282772111319
0.016964196816394 0.041376569426635 0.523375295130401
0.019938735142868 0.040052846336582 0.523210774202703
0.022940121563341 0.038435146315285 0.522885799471558
-0.015062176573979 0.042158870814056 0.523198028790232
-0.011760195842361 0.043155419589801 0.523420735199671
-0.007724182676422 0.044117616232676 0.524330834257855
-0.003952907026464 0.044735864283804 0.524466364662461
0.000082211441374 0.044974141350653 0.524459040941344
0.003704460578647 0.044764784680818 0.524456064545115
0.007927039813866 0.044071800613095 0.524393150781157
0.011581455355953 0.043218225704482 0.523818097836554
0.015168480892510 0.042086362450726 0.523600513888913
-0.014594054380607 -0.054484853970233 0.528971499876905
-0.011712502947981 -0.055021382120595 0.528377130831794
-0.007724718358870 -0.055214230593536 0.527591620990502
-0.004058866992892 -0.055289144808389 0.527139292960013
-0.000118782488834 -0.055495455984738 0.527105457170741
0.003997613453355 -0.055399836349860 0.527202660602150
0.007854818594290 -0.055298474116435 0.527664259375236
0.011669966713923 -0.055064415091702 0.528396018194369
0.014627760357373 -0.054457709567895 0.528970599700838
-0.018950808710029 -0.051045198035870 0.528652151601293
-0.015804157195256 -0.052129201031738 0.527951927327128
-0.012027672632183 -0.052710704292191 0.526881827115544
-0.008258004681882 -0.053370192079404 0.526317205881823
-0.004178657566194 -0.053558399441641 0.525786774906994
0.000239980637030 -0.053597883335447 0.525584093602467
0.004245475061262 -0.053415842010670 0.525669615523052
0.008165382122314 -0.053170727601262 0.526117555150163
0.012093854080365 -0.052555367648650 0.526767939507155
0.015816706411788 -0.052236484077158 0.528016719550828
0.018976310180637 -0.051047844889797 0.528676677381318
-0.022045017317243 -0.047748487689703 0.529169906494152
-0.019875576227279 -0.048029406526337 0.528228165345895
-0.015731696179592 -0.047672995609152 0.527722840263724
-0.012144401786448 -0.047777952838593 0.526924754935611
-0.008020972382181 -0.048036523640244 0.526289319525568
-0.003991705211251 -0.048349059498528 0.525808981816170
0.000015756584315 -0.048800190153757 0.525628101118804
0.003993097668464 -0.048340105790254 0.525862499294070
0.008062451632454 -0.048070932395521 0.526334607401426
0.012153841569687 -0.047844818722084 0.526907771582823
0.015782669531798 -0.047619791548534 0.527765030641609
0.020065308685431 -0.048059493802492 0.528358882256335
0.022075406832093 -0.047502736405573 0.529165227702037
-0.019653745902951 -0.045866106350526 0.528766458478761
-0.016107314865391 -0.044273915990520 0.527948886378506
-0.011899378597777 -0.044265512778677 0.526581752664976
-0.008141531978678 -0.045109384291412 0.525899364602020
-0.004119298965502 -0.045786694546992 0.525484146595718
0.000138871721628 -0.045950452598886 0.525349560940576
0.004326668848234 -0.045736885409915 0.525528251170022
0.007985523678319 -0.045192698553084 0.525912993529442
0.012046216700109 -0.044250915294408 0.526632516577270
0.016128336637333 -0.044488934447219 0.527988570300128
0.019518803796798 -0.045842149969520 0.528751547829899
-0.022996947943200 -0.038708107995890 0.527325428298336
-0.019366315462946 -0.040867924411113 0.528135242778544
-0.017170224750595 -0.041834890394621 0.527512325215421
0.017168286901463 -0.041791998085921 0.527182466614583
0.019524989503885 -0.040724838868375 0.528049832888024
0.023019025695285 -0.038724331701770 0.527223312133585
-0.027699580375522 -0.035499568237869 0.527498891749954
-0.024804412207859 -0.037610216876905 0.527309469536043
0.024883104902661 -0.037603318178489 0.526890170184341
0.027651334288201 -0.035564669020898 0.527526348166964
-0.031787475606551 -0.031880046609878 0.527414492453877
-0.029774731623701 -0.033783506232124 0.527250405588362
0.029708975023750 -0.033840732090243 0.527543126647342
0.031636599433459 -0.032028913188657 0.527182539797566
-0.035642646072405 -0.027486047863775 0.527266816645071
-0.033636990752316 -0.029885950567103 0.527894432220759
0.033745537296436 -0.029802921608289 0.526948658665754
0.035216734868566 -0.028051553704952 0.527088081408222
-0.038530831293744 -0.023322622185256 0.527164442804459
-0.037377243653720 -0.025072997807878 0.527114473137515
0.037422726381596 -0.025072503416395 0.526670254543431
0.038522394980199 -0.023375911175063 0.526725877029955
-0.040185603203625 -0.020269322933767 0.527275093093241
0.040297835319675 -0.020058158495423 0.526686625131472
-0.042451366590492 -0.015031189407458 0.527135986985765
-0.041576521572294 -0.017217907702219 0.527162669308989
0.041678592367513 -0.016996050441715 0.527079189572036
0.042505789369585 -0.014915194099908 0.527404964004376
-0.043253533987064 -0.012385873970284 0.527208668614154
0.043235942292816 -0.012434311967456 0.527417979623161
-0.044328189555761 -0.007624513512443 0.527238731739491
0.044228874695200 -0.008189543446532 0.527313845035398
-0.044768991987942 -0.004284844064461 0.527554828567840
0.044754332794901 -0.004422211550763 0.527259576878218
-0.044953897367409 -0.000153768143362 0.527118289236863
0.044933401142993 -0.000522423420565 0.526903272335081
-0.044747393315328 0.004180760987836 0.527406095400992
0.044812228104282 0.003315001673924 0.527300769140188
-0.044179592198583 0.008124656115722 0.527236228624776
0.044212568380765 0.007916619381338 0.526567989149676
-0.043336231590759 0.011702484582254 0.526967652124459
0.043168738763111 0.012247883169162 0.527788458372559
-0.042472278181503 0.014604441115049 0.526821273490591
-0.041578560000281 0.016830223634771 0.527207689516205
0.041776729371642 0.016266686480494 0.527144477821481
0.042397532774035 0.014737728141723 0.527082011626547
-0.040178468118443 0.019907770179253 0.527529856838694
0.040196424757258 0.019850772057084 0.526933036852921
-0.038321685924703 0.023277105642563 0.527830535684889
-0.037301273293745 0.024806579676871 0.527089617812364
0.037234277456248 0.024903401924249 0.527219046770814
0.038520702436151 0.022959104146076 0.527000484804542
-0.035385275261692 0.027480249367136 0.527186339245894
-0.033641690678879 0.029538639084930 0.526866326019148
0.033678973346728 0.029482401368023 0.526687198629890
0.035296321971230 0.027581374524887 0.526737430065325
-0.031832085950605 0.031444577845106 0.526913146706913
-0.029673105286311 0.033459342416838 0.527020567390413
0.029693556399475 0.033451041585479 0.527269750028176
0.031757931354860 0.031522545241692 0.527370741635179
-0.027623143119770 0.035149753923319 0.527318307704336
-0.025048172203834 0.037063654245020 0.527103774601735
0.024909443931157 0.037132634855261 0.527142315634147
0.027715657627363 0.035112707127722 0.527079124012070
-0.023040649284721 0.038304176522014 0.527269285858147
-0.019533231252311 0.040327995595712 0.528149688241127
-0.017182934957550 0.041415859110254 0.527375324180107
0.017011831617313 0.041492466135939 0.527413702231591
0.019358410244844 0.040472412921536 0.528158848236358
0.022780381441949 0.038432587888905 0.526764522073921
-0.018042477918177 0.042081946710486 0.529154835670039
-0.015442517617969 0.042758301261087 0.527665173227296
-0.012100186203273 0.043668505883236 0.526558803012953
-0.008335863549762 0.044692337429946 0.525938929212743
-0.004043102776548 0.045427799849180 0.525529713126311
-0.000116316086927 0.045579351120847 0.525378313334103
0.004215812712634 0.045393060066444 0.525532208575038
0.008063863715653 0.044793888278133 0.525948366260594
0.011956505735744 0.043750838655952 0.526511358137558
0.015484584180382 0.042761495073517 0.527663729980467
0.018109352285254 0.041894245152069 0.529064840972282
-0.015678304051555 0.048236086603678 0.528513873176681
-0.012124631010566 0.047894145632745 0.527384272709259
-0.008101367813425 0.047953647423868 0.526405854321991
-0.003587892861383 0.047469143876321 0.525811936510760
0.000130142007561 0.046650698831018 0.525614051772192
0.003896464492405 0.046949105046600 0.525804850940280
0.008184253536224 0.047869834921199 0.526426824419229
0.011968544290665 0.047864860392883 0.527356043071890
0.015481631313779 0.048080431492334 0.528445022696764
-0.015466316542185 0.051978852831310 0.528480093682217
-0.011812677170208 0.051782942791057 0.527321294556970
-0.008449442984586 0.051679757270858 0.526517674063240
-0.003853762988109 0.052023975752304 0.525853117542056
-0.000167945721501 0.051591289617601 0.525752062925338
0.004242061202334 0.051922307229339 0.525895738368540
0.008481137524812 0.051781197124848 0.526523073757142
0.011929902563649 0.051737386522745 0.527376818650000
0.015853443234422 0.051610880186776 0.528623852201002
-0.015458718044854 0.057232915602214 0.528665627259891
-0.011982750315568 0.057176402162582 0.527822584472777
-0.008026429333674 0.057272917408087 0.526860631215711
-0.003914410788785 0.057257485712754 0.526306111675077
0.000040194535989 0.057215672085479 0.526186288098226
0.004059644836415 0.057265582411824 0.526345641257775
0.008092730447174 0.057238510515376 0.526884861234235
0.011983753941275 0.057210575362852 0.527854324568250
0.015426130853511 0.057334900006258 0.528668124737855
-0.015134262697386 0.058487600827147 0.528801607279157
-0.012021252266694 0.058302934867285 0.527912622017841
-0.007948711793438 0.058327328570902 0.526969142845932
-0.003989625554038 0.058342044489077 0.526428405793999
-0.000014720315881 0.058322056549911 0.526259736399444
0.004026892241645 0.058280913117070 0.526422438406394
0.008110075298799 0.058271603052279 0.527012221354706
0.011998626667968 0.058284006249010 0.527925213996373
0.015003272060850 0.058397408856486 0.528775867161100
-0.015670408296596 0.063554419336079 0.528517215297819
-0.011820798396338 0.063763370382971 0.527270610132583
-0.007913582907617 0.063948757364004 0.526386958472893
-0.004138882757727 0.063691961943328 0.525879784812374
-0.000143927584555 0.064024730184721 0.525686318433064
0.004068108175084 0.063804400818813 0.525863771485658
0.008010017532769 0.063937026185469 0.526407125844056
0.012032574499003 0.063848197049253 0.527334830735626
0.015896928035530 0.063631472121686 0.528597227765710
-0.015242571485483 0.066268746306408 0.528753322692474
