ply
format ascii 1.0
element vertex 879
property float x
property float y
property float z
end_header
0.026813235713352 0.116678839442108 0.000098076844938
0.030114635295158 0.116589219279542 0.000454407814357
0.030859990609903 0.116183599843259 0.000597996856699
-0.044162537773159 0.067952378164237 0.001923233776524
0.044076813762349 0.067969548439489 0.002014722989041
-0.044819214412939 0.069460717851711 0.001492023522813
-0.044826712988046 0.070880864079051 0.002043309492733
0.044784060426544 0.071528759054539 0.001421341292375
-0.044834129325287 0.072416706549559 0.002567265775279
0.044779201448839 0.074588853932246 0.002423706357979
-0.044829196240311 0.076610685011276 0.001373122364341
0.044783689738351 0.076707133880990 0.002299214805154
0.044787653814053 0.077816461935530 0.002065842727836
0.044789162294594 0.079255344264505 0.002141814996726
0.044791144322077 0.080265136613429 0.002098890863573
0.044800413771059 0.083254157667658 0.001617199713347
-0.044821812341860 0.084423763150648 0.002407072196787
0.044795264703328 0.084618757947595 0.002375017437746
-0.044820630325061 0.085639866166800 0.002245717725648
0.044805551899857 0.085465029137547 0.001439984492489
0.044803556173394 0.086598897574090 0.001831750925120
-0.044818136855961 0.087686933329039 0.002131034295592
0.044802100791306 0.089414517067649 0.002439754538095
-0.044815940751240 0.090900546483686 0.001415756097629
0.044811746678340 0.091953623410205 0.001845913194723
0.044813245757826 0.093430874259446 0.001929083522616
-0.044807512301038 0.094614288924964 0.002424042613342
0.044815624215379 0.094737149832099 0.001892891250032
-0.044807242403923 0.096171322528421 0.001830110804874
0.044814355061219 0.095360148476991 0.002126135944660
-0.044801975522571 0.098618167488546 0.002405249660087
0.044817462656856 0.098956084966963 0.002385025314729
-0.044800197091196 0.100914330651720 0.001959367879974
0.044816155134231 0.100674184781432 0.001892911012507
0.044810887783523 0.104156616636091 0.001769167558276
0.044810884997223 0.105635177993983 0.002412468997189
0.044807122057388 0.106421859410178 0.001582930817695
-0.044632453120985 0.107882029421812 0.001988792494592
0.044567960300046 0.107904377049376 0.002026819747585
-0.043877672915550 0.108621937595750 0.001953520893858
-0.043157711338746 0.109187287037881 0.001835071394667
0.043196303232305 0.109141964381043 0.001955868798573
0.043691651666723 0.108736561693677 0.002058405711551
-0.042613492044095 0.109601559421343 0.001828270876876
-0.041885932027871 0.110113677036927 0.001946593811886
-0.040295292470244 0.110197773253650 0.001851421263888
-0.037691060851397 0.110197361705157 0.002072829908863
-0.034915450495997 0.110196914365059 0.001664010317974
-0.034053565130565 0.110196786326446 0.002344654503187
-0.032613672193133 0.110196568457769 0.001616165639577
-0.031417230316363 0.110358730409092 0.001980204723300
-0.015376562650122 0.110654252078631 0.001852442767588
-0.011413978823958 0.110496358042483 0.002317871083323
-0.009159798432409 0.110496358670825 0.001525931509701
-0.007493943517537 0.110496359070463 0.001770831830208
-0.006346648262628 0.110496359612853 0.002307623874719
-0.005675784116205 0.110496360156367 0.002530194178824
-0.004007293158298 0.110496361041489 0.001848436130709
-0.002616104253605 0.110496361921921 0.001656997744882
0.000014617731214 0.110496363632018 0.001414673585322
0.001074487117246 0.110496364328766 0.001433908340742
0.002692573077521 0.110496364533901 0.002055514140903
0.004050765885745 0.110496364533901 0.001984038084347
0.004851081310973 0.110496364533901 0.002233194732259
0.007938293917747 0.110496364533901 0.002230703225522
0.008946791211165 0.110496364533901 0.002141617569477
0.010363703530267 0.110496364533901 0.002146631348757
0.012709984224265 0.110496366108422 0.002079536524973
0.014235793396108 0.110496369038146 0.001750208076661
0.015379327318749 0.110639752643688 0.001656160308294
0.030977084599546 0.110451125351917 0.002250257833974
0.031965075573552 0.110196543422450 0.002440923083216
0.033716213993549 0.110196791394631 0.001837166749845
0.035623199152865 0.110197072303106 0.002231910523766
0.036415100794259 0.110197154257255 0.002097190714073
0.037685581208048 0.110197241852648 0.002177182465806
0.038983808127259 0.110197341799573 0.002011714063909
0.041720027814963 0.110147047506293 0.001797703978838
0.042486247016671 0.109697439907872 0.002229501951688
-0.031291942598835 0.111862684378438 0.002019602580952
-0.015352397435558 0.111390274692180 0.001965643139759
0.015512055882210 0.111581108141526 0.001811987983849
0.030948117705580 0.111032148161838 0.001651949983088
-0.031310108893366 0.112226554952957 0.001579704802895
-0.015423162096305 0.112914086014915 0.001810491573736
0.015514828044856 0.113002249992309 0.001773235126045
0.031150718465923 0.112891517627957 0.001666668422457
-0.031421427415793 0.114235130496917 0.002282626357649
-0.015363687116276 0.114118337416479 0.002059993705857
0.015450021929868 0.113944318415666 0.001983686479081
0.031254259280708 0.114113624173203 0.002007498820118
-0.031368706955126 0.115538517336924 0.002004690227846
-0.015513068078568 0.115582808358569 0.001920136291205
0.015532583471870 0.115592789385317 0.002022003484555
0.031274614730850 0.115564287403537 0.001862639822150
-0.030792547358674 0.116322278567575 0.001867399769782
-0.030291079915876 0.116610250691892 0.002129122915136
-0.028782991205147 0.116695711682267 0.001964177022287
-0.027358928737894 0.116695460665806 0.001665088844235
-0.026411401499812 0.116695074993313 0.002162436539855
-0.024831619081874 0.116694655788126 0.002278862016054
-0.021552643409875 0.116693845808857 0.002329055639335
-0.020370344189926 0.116693697891326 0.001888119513644
-0.018636212942698 0.116693303707457 0.001805796109319
-0.016889637132815 0.116692204379933 0.001944653037759
-0.015981300159193 0.116434287114709 0.001924141393435
0.015982305848680 0.116350279988866 0.001972500215224
0.016414956404963 0.116652883872514 0.001842417555345
0.018161788385168 0.116693950729100 0.001456164469005
0.019276785416976 0.116694245497655 0.002176501440324
0.020631308478559 0.116694778541998 0.001670185701856
0.021602606311831 0.116695011524610 0.002485580326621
0.023428482762226 0.116695693399379 0.002092542118486
0.025948041374164 0.116696571152974 0.002049017890851
0.026807625640625 0.116694969586100 0.001371345752988
0.029163894765416 0.116688464740285 0.002360152808408
0.030203392535548 0.116648430804510 0.001879155664695
0.030912067120864 0.116231731252287 0.001904549288385
-0.044082463896648 0.067950007695757 0.003271967846773
-0.043510581285679 0.067946933209896 0.003476375239390
0.043510013263855 0.067946963012218 0.003668321739257
0.044051969630262 0.067946963012218 0.003192886380214
0.044764910080858 0.071244719635727 0.003371256049969
-0.044833837330014 0.072701852840456 0.003765603678646
-0.044833156960672 0.073406117120480 0.003670866495420
0.044770939752740 0.073599051605018 0.003124369675189
-0.044831891065262 0.075290398924983 0.003244684291447
0.044770490777125 0.075257281014115 0.003439906832918
-0.044829998830426 0.076523925939948 0.003296971909448
0.044774368098097 0.076673713373525 0.003265347946618
-0.044829856642584 0.078131746063622 0.002641144549182
-0.044826482367693 0.079075204709684 0.003281389062996
-0.044824199713693 0.080410304382759 0.003411060893115
0.044786273597712 0.080179805044065 0.002592713555674
-0.044822177133336 0.081685119903488 0.003485971578698
0.044782253304501 0.082323921402645 0.003359217622334
0.044784866683551 0.084576081463392 0.003451836330699
-0.044818651721745 0.085531981051940 0.002909020651016
-0.044815887960469 0.088023488756613 0.002685002189166
0.044802267990204 0.091025079705201 0.002683345644311
0.044793526831783 0.091679296101422 0.003700420532401
-0.044805324767273 0.093034459906612 0.003793377755690
-0.044804502586314 0.094661391505692 0.003341042772475
0.044802309598970 0.094803246993063 0.003291321409752
-0.044803976424904 0.096131535250630 0.002864771787008
0.044805636992299 0.095475382302551 0.003053453578276
-0.044797451813700 0.101181547576853 0.002698149376951
-0.044795314803774 0.102487437614105 0.002795173028335
0.044817353841535 0.101841301909998 0.002774827623325
-0.044792483109234 0.103120019971157 0.003401776235244
-0.044790570858165 0.105156825961411 0.003110514538101
0.044810668538219 0.106373009911609 0.002666488750751
-0.044671226968944 0.107803981777987 0.003478799522661
0.044647060516010 0.107877877575750 0.003079676947932
-0.044045980631808 0.108341721260268 0.003638335986024
-0.042977357815298 0.109212841572769 0.003014952150978
0.043183181827461 0.109079772115125 0.003149179688580
0.043748977421142 0.108643003325868 0.002835171483123
-0.042458079296106 0.109558714896853 0.003531250215235
-0.042023308467973 0.109939405767522 0.002999648651773
-0.038926220423383 0.110197571981781 0.003007982135128
-0.037945699479293 0.110197420461069 0.003327994565318
-0.036208658838562 0.110197141305456 0.003155017149046
-0.032524916142873 0.110196555904242 0.003084289611551
-0.031409833520020 0.110329847578594 0.003181007747232
-0.014204788608712 0.110511037468682 0.003426252070860
-0.013373550443340 0.110496357507098 0.002867300758195
-0.011726595227193 0.110496357907301 0.003044003835499
-0.010927206082517 0.110496358126299 0.002812278432945
-0.008026698645123 0.110496358871810 0.002601358092123
-0.006470899408300 0.110496359761988 0.002927680969009
-0.004388424524173 0.110496361099143 0.002692034190025
-0.002250731995220 0.110496362652453 0.002928497906285
0.002699939116154 0.110496364533901 0.003817890210705
0.003386878508522 0.110496364533901 0.003037078534993
0.005340042597011 0.110496364533901 0.003415550461687
0.006667682490513 0.110496364533901 0.003087369554946
0.007987399483904 0.110496364533901 0.003477589909932
0.008915756201752 0.110496364533901 0.003160947078069
0.009862807567328 0.110496364533901 0.002917722136059
0.011767512426568 0.110496364735545 0.002651043112749
0.013033828315205 0.110496366308837 0.003513396050495
0.014434462156796 0.110496368915993 0.003504477524164
0.015141669411651 0.110828826549724 0.002785955469300
0.030954903984698 0.110455352130633 0.003464252245476
0.032863226786765 0.110196677166216 0.002766420556732
0.035013087418950 0.110196992000027 0.003032174633939
0.036352434178612 0.110197099520391 0.003132522598861
0.037797830760883 0.110197214372066 0.002877572110336
0.038996899582201 0.110197274549756 0.003360553430171
0.040654456262875 0.110197368306161 0.003819108422583
0.041699602260157 0.110113801192272 0.003282217021598
-0.031280445181380 0.111562675058367 0.003369456411545
-0.015027900645317 0.111835356728665 0.003033346546787
-0.014878897792904 0.111499030118457 0.003497700382986
0.014897932410857 0.111449831358088 0.003609396245132
0.015104562378481 0.111536146441507 0.003048823449467
0.030870165328899 0.111328844064341 0.003204379541192
-0.031337892671909 0.112876421696841 0.003270852695799
-0.015093169394423 0.113056447085938 0.002881407746876
-0.014917378404248 0.112675063294142 0.003429982903925
0.014892877871820 0.112150528229559 0.003780817330336
0.015154708649415 0.112737625168578 0.003123782584710
0.031016016245572 0.112643690621675 0.003178488626163
-0.031363173209545 0.114227407393184 0.003171669153949
-0.015066083445224 0.114279407299538 0.003057743050595
-0.014856570552209 0.113823294636146 0.003693499110963
0.014956013686340 0.114193066255265 0.003857097364107
0.015169740232437 0.114017493720879 0.003049227839116
0.031099022485362 0.113902418744087 0.003498554237077
-0.031394817324343 0.115549357123812 0.002914883068911
-0.015192758989097 0.115787998754414 0.003239930112166
0.014953175450635 0.115698498299337 0.003852636254715
0.015256063044217 0.115608657087108 0.003151708163634
0.031052697577214 0.115599338661353 0.003278745961191
-0.030754641667399 0.116140158615298 0.003260612539601
-0.030024612593452 0.116584356332127 0.003076724052349
-0.028551935984284 0.116695498695474 0.003213435810867
-0.026931197246761 0.116694803043502 0.003429485554785
-0.025674586926824 0.116694599050750 0.003109810651180
-0.024996160925757 0.116694396182878 0.003232558180921
-0.023434748266324 0.116693977372421 0.003361896776940
-0.022679215458454 0.116693765892371 0.003452592372705
-0.019575861719098 0.116692998054829 0.003504049106455
-0.018149652350408 0.116693028499904 0.002889133518084
-0.016746890664722 0.116694153664131 0.003136239658554
-0.015657992940798 0.116422405665427 0.003278836378913
0.015906878622823 0.116398620979027 0.003316866638278
0.016368064991126 0.116639762748093 0.003164704508229
0.018091541135411 0.116681239753822 0.003544475966439
0.019549760675087 0.116694210370572 0.003200019652034
0.022011460598894 0.116695067742696 0.003159270636299
0.023299445176675 0.116695493700099 0.003316615101634
0.024431705177123 0.116695873611898 0.003411863717603
0.025986357699864 0.116696491021365 0.002786457873411
0.027491086845410 0.116697025052395 0.002682930556200
0.028486907935310 0.116697287869428 0.003329790820128
0.030309978597838 0.116671834638987 0.003219654887235
0.030744789720548 0.116325831623396 0.003224615447845
-0.044268119794152 0.067949359515318 0.004289560224672
-0.043443170971102 0.067946933209896 0.004527144135288
0.043433375794636 0.067946963012218 0.004647401392812
0.044216051712891 0.067948593046965 0.004566363179045
-0.044683923674609 0.069683363795212 0.004663247643743
-0.044742269818790 0.071447874613458 0.004398860351611
-0.044617518601693 0.072654461289472 0.005001829500327
0.044758703245367 0.072968601840273 0.004297547174063
-0.044681599573894 0.073687331221376 0.004704607295737
0.044735580938032 0.073501728212909 0.004615162925273
-0.044682567048916 0.074908068417100 0.004709238784272
0.044714368317678 0.076855015080656 0.004699209383508
-0.044752201237927 0.077774385321988 0.004366802159062
0.044762633142670 0.077490409814401 0.004620784304020
-0.044641021019275 0.078484311949065 0.004934065806321
0.044765276129203 0.078678432884120 0.004537856745957
-0.044789231884738 0.080909048077157 0.004246901131940
0.044772556779060 0.081953434836757 0.004309796286689
-0.044721969758134 0.083213920352294 0.004584521654062
0.044662763941616 0.082559975743549 0.005055883850218
0.044777584246825 0.084561347769049 0.004208461650240
0.044774082511891 0.085078670384460 0.004243607679136
0.044782735590313 0.086542505248288 0.003992640299370
-0.044726446329043 0.087941320147440 0.004554924331172
0.044786775390670 0.088500362583563 0.003888893550876
-0.044659284891856 0.089699555881248 0.004931987792021
0.044786484208920 0.089224006175073 0.004036520035679
0.044691736943664 0.090103992445762 0.004872405468737
-0.044735549503199 0.092009435461846 0.004541201644808
0.044630512383705 0.091516931492039 0.005145544818912
0.044791460731520 0.092864511155414 0.004107843226374
-0.044800392124912 0.096031824873744 0.004024681374706
-0.044734241514114 0.098056762831093 0.004638415900852
0.044770850098311 0.097907812283655 0.004455883318234
0.044800810259342 0.099378608921909 0.004189100915676
-0.044722637480688 0.100997121917656 0.004715901867817
0.044626724423817 0.101213897456540 0.005098999336813
-0.044674089666718 0.101842072363962 0.004953392054025
0.044659701484669 0.103345234247580 0.004932783524538
-0.044706032150692 0.104680409804832 0.004822816410251
-0.044709069577868 0.106006646727614 0.004818392811538
0.044768065282928 0.106798829983658 0.004284751750612
-0.044680727590187 0.107717395031332 0.004492581420103
0.044616112186946 0.107800367863732 0.004315361329149
-0.043622947457916 0.108568090422205 0.004645047572282
-0.043064907842734 0.109005914478568 0.004500205209551
0.043016260250698 0.109134645208647 0.004455094481227
0.044028298445997 0.108309621729516 0.004611319868908
-0.041594470777503 0.110064958261760 0.004335568346073
-0.039830704500530 0.110197743275452 0.004886621650305
-0.038709606460695 0.110197555810648 0.004271857379652
-0.037202036167382 0.110197324864919 0.004903206983566
-0.035747599482014 0.110197091228163 0.004765423459732
-0.033193987600362 0.110196679538089 0.004421118979722
-0.032404429945269 0.110196555737055 0.004555365218623
-0.031229390446793 0.110287149847146 0.004165190398180
-0.014234956168599 0.110595772720841 0.004623485584070
-0.011703513558535 0.110496357844614 0.003922619847159
-0.010586654477956 0.110496358111336 0.004102371071855
-0.008730069222715 0.110496358815571 0.004518051390880
-0.008267797042559 0.110496358941751 0.004014003331510
-0.005799212033551 0.110496360837560 0.004557252154900
-0.002017261303935 0.110496363225693 0.004022736047767
0.000945067205874 0.110496364533901 0.004572142277484
0.004012919753674 0.110496364533901 0.004357406470807
0.005692775158554 0.110496364533901 0.004692328515206
0.008137043428946 0.110496364533901 0.004551423787156
0.009454577113643 0.110496364533901 0.004306620363174
0.010495045039158 0.110496364533901 0.004560815795816
0.011691325584359 0.110496364533901 0.004884903221747
0.012576248991376 0.110496365026118 0.005054229311691
0.014245099223217 0.110552620842650 0.004525837753960
0.031117297420338 0.110301770539016 0.004763242007374
0.032335848418495 0.110196617232403 0.004376050645189
0.035178100051864 0.110196940005306 0.004649498531105
0.036216452920385 0.110197011149975 0.004691171094821
0.038257979632748 0.110197187127758 0.004058874000183
0.039011302774739 0.110197216842407 0.004522421806006
0.040221145772278 0.110197281179520 0.004938145414841
0.041714752456986 0.110059586413457 0.004518108762496
0.042391947456273 0.109640854258864 0.004403604252805
-0.031084635980590 0.111423896980693 0.004489953746065
-0.014535531694883 0.111430924782009 0.004601652753029
0.014609227277255 0.111714837501333 0.004479162400139
0.030797653742609 0.111496051142760 0.004480992062843
-0.031033469409776 0.113086576280713 0.004541014382594
-0.014598509500750 0.113058523166563 0.004497428386920
0.014747907482580 0.113015852085983 0.004381877631122
0.030924890483199 0.112928595261864 0.004604492675662
-0.031033984811639 0.114101116148148 0.004462282570293
-0.014615937338709 0.113831511383039 0.004575110096076
0.014804448573212 0.114001398465380 0.004387340024140
0.030927199706733 0.114174469530105 0.004574476860824
-0.030882869961844 0.115626651549335 0.004604295046429
-0.015016171163014 0.115882214013731 0.003982297826882
-0.014796644869608 0.115576785662887 0.004500675077508
0.014803018854056 0.115384894603164 0.004572401223665
0.015129827388467 0.115898562839660 0.004200507085295
0.030827106108320 0.115514201774765 0.004659970454871
-0.030644477758115 0.116052697721015 0.004339774971405
-0.030203123483925 0.116350969974951 0.004463043385028
-0.028517756255557 0.116695899026318 0.004820608201081
-0.027292268345849 0.116694755889499 0.004894569118637
-0.026550101352995 0.116694422113489 0.004348668522843
-0.024543509565821 0.116693799320034 0.004784230020561
-0.021097011746331 0.116693067299239 0.004456922915426
-0.019973240323663 0.116692731345230 0.004659978303141
-0.018442432266646 0.116692548887419 0.004537395415649
-0.016908211558985 0.116693948163565 0.004572660385937
-0.015411541919328 0.116417140409137 0.004590737491695
0.015751478492589 0.116427047693080 0.004543799584373
0.016697781582966 0.116632148421906 0.004433976786589
0.017772837352335 0.116664876316342 0.004537933258708
0.018986019314677 0.116693837674177 0.004601810362831
0.020449011699429 0.116694402147647 0.004143830184465
0.021917515285280 0.116694811642677 0.004924596203598
0.023917368377426 0.116695537698779 0.004658264688279
0.025035768279582 0.116695875796701 0.005045782372447
0.025832735108608 0.116696183552473 0.004794258565925
0.027032631496781 0.116696635199541 0.004507978421064
0.030353088042042 0.116556943800603 0.004375146647042
0.030638523697803 0.116195581053715 0.004443152878601
-0.044089418388769 0.067973178660473 0.005685827830180
-0.043335720972515 0.067946933209896 0.005977986860532
0.043427437959546 0.067946963012218 0.005742980382384
0.044024903694010 0.067961406145090 0.005781181108803
-0.044479835956016 0.070352565946988 0.005639807348335
-0.044457544320626 0.070874141106344 0.005749866305449
0.044605361912975 0.071419766155130 0.005390343744844
-0.044543544576830 0.073785057664989 0.005362514628952
0.044490917542916 0.077097641395849 0.005884784503073
-0.044328956528993 0.078451737139659 0.006419305270275
-0.044536295819930 0.080629621580924 0.005448810284532
0.044493107046692 0.079870780163490 0.005856373981914
-0.044515979578283 0.082060334725338 0.005556345094297
0.044480817056923 0.083483695786745 0.005889222180682
-0.044482358345478 0.084389001396235 0.005734008647874
0.044475319654903 0.083812012935709 0.005912417569796
-0.044414171292542 0.085813116533082 0.006069367641000
0.044611203850964 0.085029602608105 0.005277458330037
-0.044465421514503 0.087984524517443 0.005841837115124
0.044435254337501 0.087680876531943 0.006071721228262
0.044358870827410 0.090007145973358 0.006408768446137
0.044493331758755 0.090785850849428 0.005783273259175
-0.044530019387234 0.092549684592251 0.005568881857749
0.044447004958598 0.091586295053248 0.005991723588780
-0.044438820762909 0.093224141712857 0.006008107903118
0.044554880877748 0.092882321766232 0.005485466523089
-0.044448683532019 0.094213936243920 0.005968648655836
-0.044523807169841 0.095701435289773 0.005622301281136
-0.044386297641901 0.097053558499828 0.006287103619832
0.044445651823997 0.097034255876168 0.005961997683188
-0.044514835502414 0.099503526464356 0.005693777086329
-0.044582949528690 0.100936652505174 0.005380385367429
-0.044444276142848 0.102187783140363 0.006030419047249
0.044412420611693 0.103862861016977 0.006070230316529
-0.044560368973395 0.104454649643200 0.005496416742497
0.044328825260095 0.104435132570621 0.006452130682016
-0.044494967117898 0.106350484465624 0.005776912585179
0.044418813556821 0.106395727333138 0.006024012978868
-0.044235381919613 0.107986112540798 0.005722795135208
0.044124766646428 0.108068502021852 0.005838312812326
-0.043721539406303 0.108380521964744 0.005836700255066
-0.043177876535860 0.108778148814949 0.006001532327607
-0.042157566626491 0.109527805496573 0.006274723072861
0.043122710053184 0.108958819451367 0.005931842827969
0.043862384256020 0.108360363463372 0.005630515862200
-0.041685655975829 0.109917454595254 0.005946990568813
-0.040434732340439 0.110197848824662 0.005531372609071
-0.038572648779010 0.110197554750223 0.005702917658797
-0.037756120593636 0.110197420050469 0.005381798462334
-0.036398512757883 0.110197206388451 0.005558020922481
-0.035293077456187 0.110197035671585 0.005926177955069
-0.033807489570761 0.110196800055110 0.005994001719790
-0.032918748635044 0.110196672366127 0.006326224448322
-0.030868486068240 0.110470467005759 0.005657760155117
-0.014046365853038 0.110630757567673 0.005872431630649
-0.013154990533892 0.110496357306531 0.006145069969885
-0.011349537953581 0.110496357821539 0.005360079084953
-0.007739459981069 0.110496360121565 0.006179416526328
-0.006152504550311 0.110496361033462 0.005716356803803
-0.005486427676999 0.110496361659801 0.006166866957133
-0.004293901269420 0.110496362301928 0.005704741389218
-0.003076642638601 0.110496362978880 0.005289968612755
-0.001122113821346 0.110496364345115 0.005797598503530
-0.000106959155585 0.110496364533901 0.006095882186997
0.001594923488868 0.110496364533901 0.005916950410660
0.002213123166731 0.110496364533901 0.005759003575563
0.003947127868975 0.110496364533901 0.006156092262004
0.005781687510673 0.110496364533901 0.005612736851935
0.007398346379391 0.110496364533901 0.005801369125210
0.009083440665843 0.110496364533901 0.006109198676589
0.010530547558409 0.110496364533901 0.005338832297247
0.011468529285480 0.110496364533901 0.005704594136366
0.012951561019762 0.110496365378054 0.006288933724814
0.014061731722925 0.110752864415510 0.005799936159794
0.030550216156831 0.110208236960049 0.005976374196087
0.031138612680192 0.110343146750576 0.005744903779510
0.031981288472895 0.110196581526512 0.005902447137299
0.033738853792294 0.110196776550788 0.005874661734287
0.034582673859694 0.110196840630451 0.005784595676200
0.037350190548588 0.110197021854162 0.006061819835800
0.038963888409338 0.110197119880631 0.006374673008788
0.040521591834090 0.110197263151242 0.005714195960809
0.041493844033184 0.110086586815439 0.005664284561483
0.042337970682293 0.109597353640081 0.005830270314700
-0.030713952553516 0.111478338063590 0.005788871466512
-0.030528334007079 0.111408593684214 0.006446815834717
-0.014119222745190 0.111483552072985 0.005947503835042
0.014079250370179 0.111584309591916 0.005937341409868
0.030701781705438 0.111538182434172 0.005893404048073
-0.030707115164270 0.112657653790959 0.005721541438109
-0.014205375363943 0.112986963560849 0.005873215367492
0.014225826863567 0.112819199410577 0.005803056146296
0.030756370534285 0.112936235358619 0.005876559508693
-0.030658951870483 0.113981755203057 0.005795448559358
-0.014240598983116 0.114066766445964 0.006004712661557
0.014332021623086 0.114307573174174 0.005838990177986
0.030709026639163 0.114118431456468 0.005965233287251
-0.030696350828836 0.115550145169038 0.005470564000933
-0.030306058685351 0.115942957760272 0.006258580748688
-0.014379346436513 0.115562681004825 0.005895618972783
0.014435710536478 0.115532263209809 0.005865894212333
0.030518977343498 0.116006243753923 0.005846048180821
0.030684728804694 0.115544372830247 0.005703238400999
-0.029959085727444 0.116348687193005 0.005610190309436
-0.028357660093852 0.116695941624602 0.005407734779587
-0.027328189503088 0.116695183548313 0.006078256007467
-0.025875956441803 0.116693775743724 0.006005964166506
-0.023656371165009 0.116693183460864 0.006061241468403
-0.022094739046337 0.116692847015943 0.005928099472713
-0.021233880678815 0.116692716668161 0.005679164435860
-0.019620658560895 0.116692310889386 0.005727035520317
-0.017858571881176 0.116692927549284 0.005361875749677
-0.016791886471333 0.116694038705831 0.005864432066942
-0.015267547351329 0.116523138211332 0.005786543978113
-0.014824393181507 0.116193864428808 0.005990048236659
0.014785628884869 0.116356785356891 0.006271552350309
0.015436150302370 0.116446080847484 0.005653560525022
0.016445054371155 0.116618767788627 0.005759425395749
0.018174816820252 0.116669773706175 0.005776372235267
0.019773576007485 0.116693902549319 0.006242305952180
0.020598551973440 0.116694259189993 0.005681357079998
0.022448909334014 0.116694932036978 0.005426517684252
0.023487661917354 0.116695284025309 0.005486648155509
0.024496363994607 0.116695655146265 0.005313569662186
0.026619208606991 0.116696364228542 0.005517450173010
0.027491767320391 0.116696591296771 0.006109646362963
0.028556328192418 0.116696796208053 0.005886845921140
0.030123943001640 0.116379473201263 0.005762952773625
-0.043729711329912 0.067946933209896 0.007152292602431
-0.043180870454522 0.067946933209896 0.007138900873632
0.043246721722275 0.067946963012218 0.007118458071252
0.043838669363733 0.068052523936006 0.007039818852432
0.044259801815135 0.069714257720128 0.006892616298768
0.044219619709377 0.071055938419001 0.007076475357210
-0.044175551632016 0.072075227377628 0.007101292953295
0.044088833065809 0.072219974103708 0.007652704842471
-0.044124099349162 0.073923153863641 0.007360198097164
-0.044282011876150 0.074710070425435 0.006614458924995
0.044243590892106 0.075248678269453 0.007001405833100
0.044191585280305 0.076565892193041 0.007236458652957
0.044296223812336 0.077372751756628 0.006781214439578
0.044289768042540 0.078619307739020 0.006799536670160
-0.044137212445881 0.080181546336761 0.007345132146108
0.044301141029980 0.080064735543899 0.006740755040770
0.044286202477634 0.082636500672944 0.006792696678759
0.044169612548085 0.084057404728941 0.007321219183448
-0.044201926001456 0.085440490836147 0.007076875818491
0.044111008821481 0.085579711036334 0.007581544889186
-0.044198167878433 0.087039459417171 0.007106863979262
0.044151858484527 0.087193801153665 0.007382422734585
-0.044175460828523 0.087905604259910 0.007221507615285
-0.044222170340059 0.089488430573997 0.007011138156230
-0.044301304498251 0.092368697012413 0.006656238486008
0.044284522096379 0.091409194765603 0.006742529863343
0.044104780728362 0.092875008480138 0.007562113703699
0.044323368182952 0.094133862631294 0.006545319176558
-0.044144226669683 0.097439249195013 0.007403465344929
0.044326013740587 0.096576486524882 0.006516986728781
0.044092684583408 0.099179432353335 0.007576297572954
-0.044212984626759 0.100972604365491 0.007073150214846
0.044225562433133 0.100877220789327 0.006952038134770
-0.044322397624397 0.102019063511739 0.006576860638233
0.044192043400694 0.102995124644223 0.007092699875010
-0.044145929514991 0.103445924688683 0.007357341973514
0.044293631474778 0.103664736147175 0.006619588394039
-0.044241415564838 0.106420845368288 0.006911008439544
0.044074808223912 0.106286448083528 0.007611850347425
-0.043829078136583 0.108036760374191 0.007329504903095
0.043990210536047 0.107867181484753 0.007011737569252
-0.043553447337291 0.108354192757566 0.007217165056884
-0.042689513243118 0.109080278238173 0.006732040419986
-0.042022123135907 0.109532691229922 0.007312149460799
0.043091566608348 0.108873857288787 0.007141662843433
0.043674983645552 0.108326667367701 0.006869498663534
-0.041252902363261 0.110105467066135 0.006630759117901
-0.038998094903120 0.110197638966619 0.006837889724732
-0.037727096807720 0.110197445687350 0.007468489963992
-0.036473126028938 0.110197240602136 0.007097939930039
-0.035546781395969 0.110197100842306 0.007633975335891
-0.033710324067313 0.110196808020066 0.006977368117054
-0.033063685278758 0.110196741378548 0.007622780192237
-0.030896568236903 0.110196421367151 0.006866455437693
-0.030349199296923 0.110409039711014 0.007154002795453
-0.013791349460786 0.110810244462708 0.006971590121922
-0.013316377914991 0.110496357160672 0.007495827224415
-0.011912811200714 0.110496357776862 0.007538495212380
-0.010252579206693 0.110496358832231 0.007322396089573
-0.009326336008737 0.110496359430984 0.007228208799856
-0.007407096720917 0.110496360881924 0.007589719194708
-0.004551632238667 0.110496362508850 0.006719771843461
-0.002371204158899 0.110496364084804 0.006938701787241
-0.001298122665736 0.110496364523892 0.007242655912393
-0.000128041052390 0.110496364533901 0.007144626273444
0.001072731903295 0.110496364533901 0.006592915453138
0.002459026400917 0.110496364533901 0.007046713174699
0.005022088858460 0.110496364533901 0.007157065315604
0.007014901319287 0.110496364533901 0.006902307191796
0.007977941964306 0.110496364533901 0.006790170087807
0.009478999107488 0.110496364533901 0.007061232413608
0.010003299660162 0.110496364533901 0.006679474179846
0.012895656952098 0.110496364986119 0.007446747087003
0.030507877022020 0.110406106247440 0.006876093732207
0.031242881571061 0.110196487429705 0.007516596645778
0.035559624978391 0.110196859245818 0.006779880560206
0.036644832505715 0.110196935256159 0.006790681971359
0.037061393704852 0.110196937111751 0.007335391448882
0.039996244123934 0.110197155169673 0.007117394024141
0.041832324854165 0.109923723660745 0.007159898850014
-0.030390124005626 0.111468853638201 0.006928023714739
-0.013797519865139 0.111603335730728 0.007029928831974
-0.013602851816489 0.111085324676311 0.007605808919192
0.013511184050614 0.111251658578091 0.007457068816880
0.013733309981532 0.111553967533755 0.006901472498325
0.030634467642779 0.112140691987533 0.006790006948505
-0.030228899298924 0.112797567907991 0.007392946529934
-0.013852848680251 0.112629244014653 0.007048432530132
-0.013549786429440 0.112926294348622 0.007694922026125
0.013574817132289 0.112960238720929 0.007610069097248
0.013775966239831 0.112511101993110 0.006996529192486
0.030454103496498 0.113086049339019 0.007762790871495
0.030604108921771 0.112924693264979 0.006842240670013
-0.030290854786825 0.114099969500385 0.007109322207355
-0.013951907374766 0.113896719311554 0.006938844481493
-0.013495906935826 0.114050000259166 0.007596746937143
0.013546996459654 0.113936811181652 0.007520628798432
0.013803284982942 0.114301799543643 0.007072406807961
0.030495682195828 0.113928279341139 0.007349362173626
0.030587499611102 0.113903966453282 0.006772613605820
-0.030218551797526 0.115622489809030 0.007054531428235
-0.013993141705435 0.115635120244394 0.006866573609091
-0.013469702398209 0.115683169429417 0.007514052444782
0.013515747626193 0.115601396628327 0.007370285585139
0.013964639235854 0.115514229015490 0.006790106105269
0.030376583106906 0.115824042116777 0.007226649871236
0.030575643281405 0.115152783308315 0.006624808516259
-0.029670853077394 0.116298973949861 0.007231451263736
-0.028892539344469 0.116665607037522 0.007337339660679
-0.027267370831244 0.116695516694913 0.007254924995379
-0.026200778966744 0.116694327609117 0.006735118847443
-0.024743977745547 0.116693276244163 0.007491207770384
-0.023378976705854 0.116692642721675 0.007569366290045
-0.022196920722094 0.116692623446485 0.006718927750140
-0.020300531221992 0.116692113287352 0.006880789090793
-0.020017889392621 0.116692140321402 0.006576666446578
-0.018103314890239 0.116692623171119 0.007242655850444
-0.016650532023080 0.116694155267102 0.007170170715412
-0.015302901743355 0.116683059922244 0.006839474306746
-0.014373061129567 0.116378279941488 0.007319010208777
0.014315405394616 0.116439302321412 0.007108239077716
0.015656093191276 0.116661288625867 0.007112017389138
0.016536413534716 0.116606950309317 0.007161905477290
0.018380002411840 0.116666890591873 0.007049228998251
0.019470186313510 0.116693039456963 0.006854390057042
0.021080153205056 0.116694296369474 0.006704222081049
0.022437358516384 0.116694655444910 0.007578865060739
0.023500159112487 0.116695066762386 0.007236277115992
0.025522405426128 0.116695836308167 0.006687769483613
0.027227430305824 0.116696048460314 0.007212297110249
0.028733671027102 0.116696701188340 0.007512983402039
0.029746605785637 0.116371514136109 0.007063042552743
-0.043753514077481 0.067946933209896 0.008436240895455
-0.043060375510549 0.067946933209896 0.008501847602660
0.043128558993575 0.067946963012218 0.008354849959801
0.043711563649736 0.067946963012218 0.008440009965240
-0.043899097909875 0.070145710625110 0.008402664995752
-0.043949320600250 0.071110467759422 0.008170895447936
-0.043857507187726 0.072961777301673 0.008621952794441
0.043815544518677 0.072486805012245 0.008841767737633
0.043893121379692 0.073619837944484 0.008512614880859
-0.043940961001385 0.075002067099930 0.008240134965241
-0.043943399461517 0.076770315729546 0.008241907096738
0.043890812637545 0.075757313526900 0.008537462155928
-0.043878606444007 0.077530199773447 0.008556083856684
0.043936111963688 0.077212632707226 0.008350762738812
-0.043824067733792 0.079322918639050 0.008829263243045
0.043971395110802 0.079375108819801 0.008212477599686
-0.043909527464994 0.080131380968618 0.008428576098950
0.043886664953918 0.081054680621500 0.008592203539507
0.044015634970763 0.082789765502874 0.008039985163699
0.043880493254735 0.083674684731216 0.008637177223271
-0.043906020174209 0.086054512462705 0.008490089541322
0.043966991297903 0.085098610737718 0.008249165869118
-0.043983099320789 0.087348558015037 0.008132969786642
0.043939631271036 0.088019260772620 0.008356112262889
-0.043836048348888 0.089515118607420 0.008833241248564
0.043995832252491 0.090492480832670 0.008080492503773
-0.043981664877010 0.097498188507984 0.008130489801520
-0.043937553033193 0.098697650040956 0.008320184797915
0.044006409885199 0.098342235511536 0.007979865129455
-0.043773083227925 0.099651656406471 0.009050009357878
0.043838138099308 0.099894817727422 0.008745959609408
-0.044039383777312 0.100487337869408 0.007853058706369
0.043845191478539 0.101474000696374 0.008702991720396
0.043984288862198 0.101829953484098 0.008058896736819
0.043924524600999 0.103112224878315 0.008326161497969
-0.043790728598192 0.105117000144841 0.008936019269884
-0.043848832476988 0.105978175050490 0.008670506211201
0.043963048884756 0.106548830374253 0.008125735105266
-0.043789189029262 0.107624881117121 0.008376924839391
-0.043271432593536 0.108222313727801 0.009038145291846
0.043459504478980 0.108199648016996 0.008387961640523
0.043742529482735 0.107935189454548 0.008173839249375
-0.042982447291095 0.108639568894960 0.008472035949862
-0.042006685566047 0.109460538344412 0.008199649767243
0.042976289548401 0.108772789277037 0.008251483630677
-0.041528196939779 0.109813260887028 0.008315488089849
-0.040502336270517 0.110197896744707 0.008093469054169
-0.038775526156730 0.110197621845198 0.008101633393536
-0.036247029218579 0.110197226729114 0.008624442362064
-0.034889201543280 0.110197016048249 0.008353673018161
-0.033844752971205 0.110196863088999 0.008062147078180
-0.032234877517091 0.110196654340091 0.008258621716907
-0.031402981062301 0.110196556613574 0.008625611199151
-0.029971523537345 0.110464988270063 0.008481778825151
-0.013320236908118 0.110572754250851 0.008329001964070
-0.009814785543525 0.110496359624303 0.008625509044390
-0.009616551966519 0.110496359784590 0.008690441268784
-0.007650127592866 0.110496360990212 0.008316986923560
-0.006499096662323 0.110496361958686 0.008794014999666
-0.003279558364037 0.110496363948542 0.008224785562621
0.001758955811966 0.110496364533901 0.008311632280290
0.003776706424052 0.110496364533901 0.008161443508851
0.005627112890861 0.110496364533901 0.007782840915897
0.007746611093102 0.110496364533901 0.008677465602888
0.009102570078734 0.110496364533901 0.007783280020951
0.010009211245891 0.110496364533901 0.009046236936731
0.011628167504728 0.110496364533901 0.008446506701709
0.012834304872417 0.110519690255267 0.008842759445481
0.030357889211034 0.110281961340474 0.008793167730325
0.031082625315513 0.110196455164188 0.008237626974385
0.032550847141478 0.110196561906732 0.008463304514008
0.033599800375578 0.110196644786237 0.008287593938291
0.035151030781540 0.110196747806135 0.008414459820979
0.035966856964649 0.110196780170840 0.008912814934933
0.039025389827693 0.110196996482559 0.008901999004980
0.040270490977460 0.110197120706846 0.008182041188847
0.041685206287462 0.109956193525050 0.008571524698829
-0.029961077431090 0.111377301788290 0.008443427474943
-0.013119714270296 0.111339099734910 0.008430191887459
0.013120177639696 0.111486439695307 0.008418342791122
0.030404518256775 0.111630887236999 0.008329636177969
-0.029970664117925 0.112994265018627 0.008307354542673
-0.013085078608498 0.112830188491544 0.008366163224908
0.013017782811132 0.112763671679018 0.008469601496514
0.030335770850687 0.112737608813271 0.008433685474185
-0.029890865425414 0.113982988426578 0.008550301076710
-0.012848149010174 0.114321597193290 0.008469495400989
0.012846439032916 0.114138871944500 0.008500557718541
0.030276610598537 0.114280842762352 0.008518004904522
-0.029807251620448 0.115699904855564 0.008401911971764
-0.012921942999032 0.115717328573959 0.008370863738819
-0.012320219555009 0.115331811155333 0.009058452372013
0.012347207594402 0.115731053677528 0.009030092828079
0.012817748975684 0.115540777599923 0.008448485953140
0.030161385682330 0.115653264947711 0.008414610405652
-0.029470802945910 0.116241780070724 0.008323774093954
-0.029063158942199 0.116540410768395 0.008435940290152
-0.027343239169055 0.116695997302099 0.008483393058644
-0.026106875242047 0.116694798439123 0.008420874169010
-0.024916161734249 0.116693463103855 0.007816890297641
-0.023694302658753 0.116692569274484 0.008630521142095
-0.021888688285722 0.116692014661197 0.008419972384671
-0.020902262704570 0.116691812711462 0.008302208501044
-0.019892480634446 0.116691604502595 0.008186361275791
-0.018193758022123 0.116692494042072 0.008609951194654
-0.016763275923151 0.116693922122362 0.008494385555186
-0.015641248098420 0.116694682460094 0.008430739995203
-0.014125329880154 0.116513806536950 0.008117724519389
-0.013315779508535 0.116278834661966 0.008581329378984
0.013241470422096 0.116389472017423 0.008590455425765
0.014214682524000 0.116675224426624 0.008383543532837
0.015470310903743 0.116648413802732 0.008267741959163
0.016554509014918 0.116596397913428 0.008511983731316
0.018414458676990 0.116656854334557 0.008399928759723
0.019247284314599 0.116685597216281 0.008496856459856
0.020710834181974 0.116693912271716 0.008727477427486
0.022099251797197 0.116694462395066 0.008178957636914
0.022934071190394 0.116694656372253 0.008929276572475
0.024788110903611 0.116695311733945 0.008577490627375
0.026131524484381 0.116695337390525 0.008492550305400
0.027492790382674 0.116695407152571 0.008464464275895
0.028489720009032 0.116649318800512 0.008509707788514
0.029429200445521 0.116209024442710 0.008571539127712
-0.043616149632326 0.068157037760983 0.009570957474272
-0.042881537200150 0.067946933209896 0.009798689143012
0.042929814107312 0.067946963012218 0.009751111266530
0.043659149357990 0.067946963012218 0.009401346536802
-0.043530190562045 0.070768096030444 0.010163443037299
-0.043503610694882 0.073112910130272 0.010307710541236
0.043681722301252 0.072564922278273 0.009423656335370
0.043504942650751 0.074706305611672 0.010206462769022
0.043585362351677 0.075419348045475 0.009862048604897
0.043510409582401 0.076470836095603 0.010194945780086
-0.043591455812358 0.078021553453700 0.009926693012454
0.043471714399490 0.077102390832740 0.010367422555322
-0.043529043111751 0.079195360651243 0.010232671012656
0.043698353002951 0.078386702549526 0.009391768195247
0.043616794267431 0.080310006534272 0.009759406560384
-0.043586896439414 0.083321963727301 0.009987800543612
-0.043528924171046 0.083807070356340 0.010244094807841
0.043546270116282 0.083588081088420 0.010088500488770
0.043580709827054 0.084482990287591 0.009945092186077
-0.043733961528644 0.085748415376143 0.009306805088594
0.043748810980932 0.085411484719136 0.009221268076454
-0.043647010816664 0.086452294157838 0.009698745605067
0.043701876098986 0.086503475062927 0.009432731435793
0.043704995924681 0.088507323556857 0.009426470794069
-0.043652748328447 0.088919351606477 0.009657258172265
-0.043721107783121 0.090211718498839 0.009343091295360
0.043528506376720 0.090602170771981 0.010214293290876
0.043746510570236 0.092528491129223 0.009217330108137
0.043681093615069 0.093620437309975 0.009511930923657
-0.043686258974308 0.094033049499813 0.009474531111127
-0.043506708296997 0.095204289250872 0.010270444342470
0.043552562190145 0.096481693727719 0.010086037597634
0.043603164688018 0.095862924297768 0.009856661287440
0.043674499917454 0.097276029060030 0.009518216737439
0.043598380303104 0.098261126202355 0.009862901185612
0.043558483456673 0.099949724549743 0.010035822227812
-0.043606759266988 0.102154890831208 0.009778199751445
-0.043512404421317 0.101799265928010 0.010202681456367
0.043527631210726 0.102082493176140 0.010164082241194
0.043737886988805 0.102710866686272 0.009189889637006
-0.043638497486056 0.105085293700116 0.009617398909884
-0.043532331725771 0.105521026219610 0.010089657238661
0.043691500618392 0.104812551130413 0.009390023693886
-0.043584156019776 0.105863752665379 0.009855566276958
0.043655490881163 0.105988715428455 0.009548394239276
-0.043599259436010 0.107768192895383 0.009496387511125
-0.043195293738132 0.108159318075755 0.009645893598458
0.043298423829142 0.107962578719236 0.009865994821058
0.043675618831809 0.107740756011023 0.009285138030202
-0.042615317179157 0.108719630242532 0.009848570211314
-0.042008032126998 0.109305356776355 0.009830616049594
0.042094072849901 0.109386574601806 0.009788081420849
0.042717188454016 0.108641522515245 0.009988735156203
-0.040953498193438 0.110066885217257 0.010253404929731
-0.040616234077742 0.110197942464183 0.009995374166321
-0.038494873977987 0.110197601857745 0.009805657005129
-0.036353777752877 0.110197266986053 0.009779376885126
-0.035026027587387 0.110197077139700 0.009511166126019
-0.033704072774029 0.110196908183584 0.009736848947698
-0.032412283299555 0.110196741655975 0.009920040574736
-0.031024583907035 0.110196549749142 0.009776219632163
-0.029712272324144 0.110343273714043 0.009765545746192
-0.011738248040296 0.110626052888586 0.009457188197478
-0.010406681330225 0.110496359517327 0.009415398216394
-0.009254071289200 0.110496360553628 0.010069117956496
-0.008048290871261 0.110496361122309 0.009388533275807
-0.005968713204203 0.110496362514805 0.009304639599635
-0.003217781530515 0.110496364378346 0.009250587237888
-0.001771769269850 0.110496364533901 0.010021069551359
0.001559764883839 0.110496364533901 0.009243595166760
0.003012202437480 0.110496364533901 0.009703504565377
0.003625358040733 0.110496364533901 0.009338557536105
0.007701240521434 0.110496364533901 0.009575854187237
0.008851876152408 0.110496364533901 0.010272421091125
0.010620225051507 0.110523853696590 0.009965481708023
0.012627002672893 0.110696825456433 0.009194102650166
0.030113329374475 0.110277778794105 0.010194591526589
0.031112085136972 0.110196434316457 0.009630486693565
0.032878274829294 0.110196546380767 0.009711694978575
0.033752186848920 0.110196603131649 0.009818155430208
0.035258568318636 0.110196697815619 0.009556285485450
0.036210231985336 0.110196781982688 0.009216662016726
0.038743363588261 0.110196947383276 0.009479806113542
0.040946615938727 0.110197102660992 0.009482800404793
0.041330879875013 0.110120865386780 0.010278115213366
-0.029555394607333 0.111740162097823 0.009854752169322
-0.012483426984307 0.111730369867633 0.009168056000517
-0.011751886229687 0.111387627617708 0.009700958440998
-0.010909401290696 0.111200920869942 0.010339005827449
0.011965765387240 0.111717421745674 0.009749614317192
0.012512742908310 0.111400550352038 0.009317548383189
0.029912737883584 0.111320206597835 0.009802397977411
-0.029565817023231 0.112887104149884 0.009765003169217
-0.012476259356909 0.112768074682337 0.009208353691669
-0.011640253860909 0.112867029631941 0.009945351183636
0.011825584601267 0.112938509329282 0.009909909563725
0.012465808708375 0.112703577221868 0.009276218566225
0.029822299517095 0.112756172173585 0.009782747931973
-0.029632671616309 0.114185700059487 0.009468306643056
-0.012413680092934 0.113814076754223 0.009161833453078
-0.011925055887958 0.114128111216652 0.009723826921899
0.011808115046099 0.114119248846214 0.009914829482503
0.012403165770023 0.113974474125278 0.009166610357544
0.029720917173764 0.114183477369616 0.009788030292368
-0.029465619499303 0.115709642431437 0.009604347542580
-0.029161375714075 0.115996231162731 0.010225412242768
-0.012498504566461 0.115949200649088 0.009203252558419
-0.011922721671393 0.115555070022312 0.009749205390243
0.011869203990191 0.115586008843876 0.009793602292647
0.012489418913212 0.115928490994378 0.009079057810721
0.029543450400897 0.115559075194516 0.009796215576019
-0.029276485428219 0.116137240701182 0.009396214019452
-0.028807344659343 0.116501160233043 0.009671472496742
-0.026984736130224 0.116696032784601 0.009617904438441
-0.026152326167039 0.116695232938595 0.009597822074490
-0.024641338949521 0.116693808257087 0.009643190501633
-0.023160041034426 0.116692386156921 0.009611211823757
-0.022324458167279 0.116691888501743 0.009880831635015
-0.019332668041573 0.116691264539541 0.009814194777201
-0.018138685744043 0.116692458629452 0.009804368708295
-0.016698875960430 0.116693435135985 0.009796464895015
-0.015487103939569 0.116694058926143 0.009833260892537
-0.014267579299537 0.116694704505692 0.009845855003441
-0.012851562449024 0.116502680618375 0.009700872580858
-0.012154300580553 0.116261484616450 0.010066187685965
0.012115875522617 0.116285915589936 0.010075132429738
0.012803920049438 0.116478011341185 0.009607806354030
0.014329748713267 0.116654678747909 0.009584212460883
0.015438066635265 0.116626776127495 0.009520278442680
0.016990995640278 0.116591841479201 0.009688503082704
0.018364642177177 0.116641495445854 0.010002324571341
0.019113463212944 0.116671423265086 0.009833011396555
0.020783961674922 0.116693850532601 0.009414847806369
0.021893092086918 0.116694256808921 0.009238703632516
0.023512517401959 0.116694598288511 0.009872172391895
