ply
format ascii 1.0
element vertex 871
property float x
property float y
property float z
end_header
0.030100741577274 0.034932255720343 0.085240862285050
-0.028543889468325 0.037226257743117 0.084532564210118
-0.027478012072366 0.037643181241905 0.083640131288867
0.027218886361365 0.037918591379470 0.083572616365058
0.028443516779242 0.037119332773478 0.084439712046903
-0.028671169960192 0.040143386665074 0.084826844132446
-0.027271609183313 0.040044477781299 0.083740838242106
0.027042658834403 0.040637819582424 0.083594141597797
0.028765372914507 0.040380673972947 0.084920405478583
-0.028722055408061 0.043036885825614 0.084888087119296
-0.027129030408753 0.042452491532382 0.083649674462171
0.027270529327502 0.042541615364232 0.083779189075489
0.028744877200403 0.042523571073699 0.084912549056136
-0.029049512784028 0.045149835070055 0.085151193239170
-0.027375851414695 0.044961439638282 0.083857067026310
0.027014699152427 0.044919374660524 0.083593540321238
0.028409532721529 0.044882098741092 0.084667511651578
-0.028756456575756 0.047390146811704 0.084932885510365
-0.026746468502556 0.048026281494641 0.084387502575009
-0.025369307772490 0.048291077512949 0.083894883506165
0.024895030293715 0.048295235063386 0.083503205142997
0.026449852892724 0.047846990335343 0.084184687184401
0.028469023052908 0.047186228824597 0.084912833168880
-0.028636807128552 0.049899648888650 0.085010429438746
-0.026680937017899 0.049982443945667 0.084794625612875
-0.025002874821346 0.049971398162838 0.083634597121372
0.024806449898187 0.049878829981207 0.083465370985513
0.026275884040181 0.049751499819763 0.084548451556087
0.027926359173435 0.049759638134652 0.085071737039900
-0.028741618597936 0.052240531616252 0.085047558167153
-0.026610245034820 0.052186263482522 0.084712023412590
-0.025002380614712 0.052035403746181 0.083616382273435
0.024793996683080 0.052248563341256 0.083482433475479
0.026316157600384 0.052166128300107 0.084496982876701
0.027970115296526 0.052004958648193 0.085150872634746
-0.028559238767622 0.054718773597404 0.085071866797486
-0.026772369495540 0.054487328831413 0.084717202310961
-0.025004839757898 0.054558183576768 0.083668203808680
0.024742646600162 0.054483722209691 0.083481195171938
0.026194434827907 0.054633933939077 0.084430992877666
0.028392268298899 0.054444764643075 0.085228724470403
-0.028489472345654 0.057367666050613 0.085209409163030
-0.026730790221978 0.057255985277654 0.084368158296948
-0.024871414619817 0.056988108677880 0.083682664628244
-0.021809685756501 0.057048887337989 0.084493693299798
-0.019411762376396 0.057047991336842 0.084853974216548
-0.016950306461046 0.057047076411459 0.084384757895350
-0.014570353525846 0.057047077049293 0.084870542678860
-0.012039907647411 0.057047077748144 0.084567465313814
-0.009835555501887 0.057047078275419 0.084711146682386
-0.007455165644506 0.057047079501448 0.084592501027897
-0.005091722739268 0.057047079942029 0.084019194295586
-0.002370427864147 0.057047080981230 0.084790831523768
-0.000443138674764 0.057047081466433 0.084790703556680
0.001748079768149 0.057047082571858 0.084662009850743
0.005057011704385 0.057047083709318 0.084281774958599
0.007410771769592 0.057047084033415 0.084725368889963
0.009390819656700 0.057047084833343 0.084532149092555
0.011782270482846 0.057047086082208 0.084608129976750
0.014175236840825 0.057047086753608 0.084546950407791
0.016804980941638 0.057047087647872 0.084110628007324
0.019132673568889 0.057047088377516 0.084326177395557
0.021294494066951 0.057047088957223 0.084284523013454
0.024628014135939 0.057037344135396 0.083733690174531
0.026446269448642 0.057142834071925 0.084213063409756
0.028306764536940 0.057362030786232 0.085043393876736
-0.028519498555532 0.058591457872776 0.085147139906016
-0.026867602014715 0.058643332785544 0.084084478649978
-0.025327548484900 0.058417847862877 0.083406264851702
0.026620511394377 0.058654952910068 0.083940589963152
0.028355743248191 0.058607683443677 0.085041931347034
-0.028761305674724 0.062003992298425 0.084909003700372
-0.027228700231487 0.061761180630255 0.083684301168565
0.027119655749759 0.061920730969400 0.083606386954299
0.028441765519831 0.061796841568902 0.084649829829927
-0.028897326181606 0.064360428866618 0.085024388694786
-0.027135741298122 0.064096191437547 0.083612198314542
0.027061704565240 0.064026144261299 0.083560731646421
0.028458110404879 0.064206738700378 0.084665156987240
-0.028465699543718 0.066992629053851 0.085146899199551
-0.026829539290447 0.067155777525031 0.084251397496491
-0.025079007181130 0.067747059481325 0.083570029607421
0.024877634417277 0.067780515150334 0.083474096004894
0.026443323027703 0.067269803839629 0.084089676467613
0.028300145967384 0.067066019247742 0.085098439720640
-0.027870366105227 0.067857511906479 0.085642104189178
-0.026749966590286 0.067855084876943 0.084799455194672
-0.025132003529335 0.067857795585262 0.083638691703610
0.024842155052231 0.067866640882921 0.083472062079597
0.026205410007704 0.067853825830819 0.084418283161072
0.027651903236907 0.067868861233124 0.085568722315756
-0.027997744653296 -0.054730349371580 0.087883331048684
-0.026394190619634 -0.055188669794574 0.087104694851263
-0.024204224927299 -0.055878711619371 0.086978624350114
-0.021914761325706 -0.056255254954828 0.086569926606135
-0.019766560422313 -0.056380808076540 0.086285504747315
-0.016879123891577 -0.056322387053103 0.087107881876235
-0.015021716436368 -0.056336718443333 0.086940558318245
-0.013087786287699 -0.056264068385088 0.087771391681312
-0.007511065204474 -0.056309931948549 0.087246245848135
-0.004424774950050 -0.056343846016204 0.086866764289264
-0.002879855561396 -0.056327392150275 0.087061973700190
0.000051552416557 -0.056321406802715 0.087146057126437
0.001923345922487 -0.056377628733362 0.086518490707739
0.004803752614282 -0.056360482597351 0.086714528329224
0.007166819885718 -0.056368413552976 0.086607326312949
0.009645162894295 -0.056340243742339 0.086914032374080
0.011854118690750 -0.056317765338453 0.087171796490741
0.013854438212279 -0.056338941154142 0.086939285928924
0.016918592020606 -0.056351149650012 0.086814075446894
0.019303336466364 -0.056373598242664 0.086475551686803
0.021730206222510 -0.056272878970151 0.086620921555202
0.023742301946246 -0.055987995184217 0.087059091655635
0.026114913442469 -0.055277367930538 0.087046477931171
0.027817332411018 -0.054788998758062 0.087789218654452
-0.030488551646055 -0.052606610736103 0.087792952034996
-0.029032173230094 -0.053292470524387 0.086959260757696
-0.027293721727562 -0.054248483349643 0.086243368396161
0.027085971709967 -0.054320204686705 0.086103201320421
0.028783304764197 -0.053440370165354 0.086891534998731
0.030394464627180 -0.052732945595619 0.087817899764093
-0.030797067597618 -0.050707231750970 0.087124014506573
-0.029773505664498 -0.050819126715367 0.086139335498064
0.029525469036099 -0.051101444590038 0.086039466165694
0.030941638772092 -0.050757980152203 0.087294107461917
-0.032736349816973 -0.047582148118638 0.087932932980427
-0.031432515208326 -0.048665253540438 0.087029242334090
-0.030014625122384 -0.049463512108146 0.085972623707712
0.029786462997636 -0.049648755661041 0.085818003411422
0.031238887296473 -0.048708103354535 0.086832997004133
0.032488206414160 -0.047771549436321 0.087734918050464
-0.033418593349482 -0.046012430377574 0.087125362180384
-0.032249771739564 -0.046823888964027 0.086174243428804
-0.029320957868096 -0.045004227604281 0.085803338567830
0.029302708055411 -0.045013005315596 0.085797053687119
0.031995103293935 -0.047105195973431 0.086078575444552
0.033249771856492 -0.046202308814253 0.087058105612195
0.034659789184791 -0.045099590945344 0.088116693319811
-0.035008298180670 -0.043241741298265 0.088116604221998
-0.033798739424752 -0.043812557133705 0.087004085461096
-0.031095180385088 -0.043475254552886 0.087036646392078
-0.029822415004923 -0.043688154614618 0.086078121347398
0.029592982464693 -0.043983944637141 0.085942601826108
0.030885392668021 -0.043589765162773 0.086854686623344
0.033560598127646 -0.043799549834197 0.086916260673267
0.034818584644667 -0.043632274069085 0.087964247065088
-0.033557053865172 -0.041731727197516 0.087341795884991
-0.031736824414760 -0.042035333220887 0.087036815106657
-0.029967558971108 -0.041251275878057 0.085931708014440
0.031536904513217 -0.042088606636663 0.086963887366092
0.033225631561618 -0.041726657456226 0.087230676946836
0.034754229984119 -0.041715989852479 0.088018966325154
-0.031198106617136 -0.038982536315506 0.087122424561681
-0.030035117154545 -0.039036414905661 0.085958321193321
0.030920896247365 -0.038899330649076 0.086858426087003
-0.031330221400805 -0.036530816569375 0.087223541275150
-0.030049963914742 -0.036363860326112 0.085920937384334
0.030861149348359 -0.036529044686065 0.086763001970848
0.032273918046838 -0.036445624537713 0.088134456623250
-0.031404887175938 -0.034061117885378 0.086736279820720
0.031326404567945 -0.034098041981633 0.086686006227449
0.032399280296004 -0.033461842254060 0.087905190002293
-0.032898088835309 -0.031529065563637 0.087257098062028
-0.032112703091996 -0.032339217957276 0.086563812206389
0.031896947382699 -0.032548249210897 0.086473363442588
0.032845608745265 -0.031508981884459 0.087228431892775
-0.035060707708728 -0.028269629270818 0.087981671207200
-0.034003510793377 -0.029480831616885 0.087038148016654
0.033928128549272 -0.029483345040432 0.086887216322934
0.034791316604685 -0.028326650715404 0.087210908430788
-0.035493629691840 -0.027350517725740 0.087358053096294
-0.034839455509647 -0.028110934252726 0.086697793553119
0.035517538576516 -0.027319479533956 0.087185925778673
-0.037721308883620 -0.024068066372537 0.087016111570020
-0.036953319193928 -0.025186215257174 0.086990949561594
0.036811779328081 -0.025385203573508 0.087436164471641
0.037547610486398 -0.024350343057459 0.086969743932885
-0.038954129750073 -0.022065934705971 0.087154042701577
0.038664918470276 -0.022619257649424 0.087028696271779
-0.040262463950896 -0.019708624987582 0.087252563563948
-0.039693342056074 -0.020724267358582 0.088146527654782
0.040202107952351 -0.019766883388873 0.086727431064072
-0.041411655880380 -0.017229027278605 0.086946686267919
0.041252949873645 -0.017560820134869 0.087241113941074
-0.042458859329194 -0.014626824473719 0.086879560201228
-0.041996099652316 -0.015795739556285 0.087511577838175
0.042321188094614 -0.014921915712606 0.086881892283095
-0.043002970024194 -0.012911347139207 0.086837193635985
0.043119854196530 -0.012471980144005 0.086432726055747
-0.043767438331678 -0.010131033114382 0.086851755887134
0.043859047250713 -0.009761311657548 0.087063399785470
-0.044132997157549 -0.008523423866318 0.085792202072428
0.044147017102738 -0.008387287667086 0.086660092532727
0.044307269529882 -0.007331282355231 0.086939228321453
-0.044678236009652 -0.004989397842473 0.087182337530094
-0.044512801207306 -0.006066604064935 0.087430085974151
0.044668571512116 -0.005004718003536 0.086739138214204
-0.044849085587597 -0.003137526903388 0.087069890881782
0.044861472276405 -0.003005617202629 0.086724966423215
-0.044982158964188 -0.000333951754464 0.086747463284937
0.044957005602836 -0.000844454628268 0.087591149093034
-0.044920670116602 0.001790100509389 0.087291392823700
0.044921032492556 0.001886798179631 0.087051221406750
-0.044815544187905 0.003897765243491 0.086556171647540
0.044812818996235 0.004136756156657 0.086646239458262
-0.044610559867808 0.005707712692443 0.085940614165214
-0.044408798635793 0.006992887818754 0.086499459915479
0.044470343996100 0.006817310663189 0.087103467552129
-0.044161958658202 0.008524534253723 0.086385715156908
0.044022034351172 0.009386570224038 0.086723994570870
0.044271041165525 0.008060133828681 0.087250699416134
-0.043513005528097 0.011314050549286 0.087384149524954
0.043369542322701 0.011824030119780 0.087020071435515
-0.042872086617550 0.013633244270857 0.086918030090352
0.042885494623228 0.013584139957841 0.087430517459210
-0.042213139811110 0.015498295925467 0.087436011088664
-0.041904198676485 0.016264636020324 0.087218396625234
0.041748960689895 0.016695039221061 0.087710226263809
0.041993686558660 0.016103927819582 0.086321319695330
-0.040959477743927 0.018582136722209 0.086991151178714
0.041012741746407 0.018468863832337 0.086806690518105
-0.040287101009401 0.019969816060630 0.086479328491082
-0.039511637188991 0.021390663708250 0.086779791515903
0.039206956895341 0.021912196959654 0.086730981274569
0.039827836258328 0.020794001516772 0.086775890177728
-0.038521542016381 0.023155352038695 0.087079664824487
0.038088660757508 0.023801179024060 0.086772968228113
-0.037462721091404 0.024758440528071 0.086838141783444
-0.036691577315604 0.025862733991748 0.087102850452355
0.036445224201939 0.026222355286408 0.086826272426274
0.037220535845002 0.025101371772121 0.086328433064960
-0.035461743126873 0.027697415270591 0.087220556528029
-0.034534583537856 0.028907018066302 0.086910013772322
0.034315232124316 0.029039946769340 0.086442757173877
0.035213415536203 0.028047860871229 0.087312962367196
-0.033451243272234 0.030549646164683 0.086903982884411
-0.032507758028319 0.031787688160815 0.086274054611455
0.033362948312603 0.030814089714775 0.086977888003335
-0.032780050930513 0.032453390447376 0.087735435728881
-0.031878642557128 0.033338335015133 0.086763040784012
0.031737268644186 0.033425907439161 0.086628204156238
0.032535018673876 0.032837200095457 0.087489733287596
-0.031143331569010 0.034877234656287 0.086695119930218
-0.030114678668917 0.035966332799948 0.085954835820081
0.031099216782330 0.034919126278336 0.086677327316482
0.032316687500794 0.034513288603820 0.088121311118580
-0.031098952994806 0.037680541704691 0.086958539207360
-0.030023185737185 0.037680900258280 0.085978176274835
0.031085105085092 0.037744234219622 0.087000431857521
0.032219143721665 0.036834280150189 0.088079389417512
-0.031234012773045 0.040360833543134 0.087094207608647
-0.029958296792270 0.040579945477050 0.085915147766735
0.030868136544670 0.039980671587016 0.086820234192250
-0.030834158701541 0.042275168125707 0.086715202260286
-0.029998873044919 0.042051898886278 0.085949023442840
0.031334744587256 0.042863083176593 0.087306619394175
-0.031162589065054 0.045153979430103 0.087035247862064
-0.030007612960882 0.045300225721699 0.085951378786134
0.030852162105905 0.045260933060669 0.086816858219116
-0.031177084854331 0.047637806169288 0.087385692952753
-0.029319266298305 0.048204602578328 0.086879289180030
0.028604014734117 0.048368507418630 0.086413115327167
0.030873113071668 0.047336701967126 0.087089771575333
-0.031132689773080 0.049786091852079 0.087707082857401
-0.029049503080704 0.049825624573483 0.086740561183159
-0.027780432367314 0.050333892297936 0.085771476990627
0.028904556482723 0.049828961867014 0.086690850154245
0.030468421438583 0.049825187390828 0.087494863045418
-0.030736318451859 0.052332356788280 0.087495696342336
-0.028835094312208 0.052145406892923 0.086595578490542
-0.027759539511617 0.053168674947928 0.085794805258938
0.028920714222210 0.052303261815049 0.086679941504173
0.030481203217512 0.052151517293724 0.087405974488831
-0.030842015156604 0.054798853146619 0.087492234823729
-0.029134965616982 0.054715332571006 0.086811586682620
-0.027696727634072 0.055184709498287 0.085770990532033
0.028771929168018 0.054636703634512 0.086659119019872
0.030440733514488 0.054691301527231 0.087268663195428
-0.030974135609731 0.057363412078112 0.087437079624839
-0.029273775320970 0.057216901882738 0.086612706676013
-0.026522419267730 0.056887177464678 0.087170748305838
-0.023953001241735 0.057047073425720 0.086520854456550
-0.022318431870130 0.057047856027181 0.087416148140767
-0.019264229205613 0.057050735701203 0.086960581194309
-0.016902024480694 0.057050095605104 0.087047738645948
-0.014801330384698 0.057051002623772 0.086777241816051
-0.012026287251241 0.057056931620880 0.086909162288385
-0.009529607556248 0.057055733697120 0.086861722357086
-0.007296482617806 0.057051571959156 0.086793220734261
-0.005126093738886 0.057059782780010 0.087394199566752
-0.002404906843697 0.057050119192442 0.086629113176382
-0.000241135623531 0.057057320436403 0.087252440493452
0.002277969398498 0.057050952422998 0.086947675455361
0.005031195019377 0.057050177494494 0.086863764826671
0.006471167829325 0.057073308112363 0.088160803567769
0.009469783263258 0.057053957498792 0.087252128860539
0.011674828034955 0.057052709786903 0.087077417806199
0.014241609854335 0.057054895915833 0.087427559515721
0.016498148370144 0.057049638364792 0.086584830990068
0.019247798036071 0.057049441875519 0.086783825416350
0.021070889038227 0.057049693064780 0.086780435972967
0.023783879981553 0.057047089303017 0.087047039108273
0.026296070408601 0.057051670956958 0.087254517672756
0.029045706428241 0.057170544615206 0.086497769727757
0.030720076573216 0.057324379881373 0.087294856683914
0.032275998778448 0.057712735399042 0.088146804053456
-0.030949305401070 0.058608993909662 0.087369837592517
-0.029529740251291 0.058658550820490 0.086322929050631
0.029296692299534 0.058668808322703 0.086171286912364
0.030829075815596 0.058611982254307 0.087283043283227
0.032245566040966 0.058836173181316 0.088137565277741
-0.031317800058122 0.061916790690392 0.087213714759011
-0.030016528196167 0.061864427445742 0.085991689300082
0.029795289456433 0.061537593915738 0.085794502495317
0.031185924428662 0.061861973760978 0.087089276039124
0.032236384348275 0.062938044196885 0.088127609750723
-0.031168633106262 0.064382596854175 0.087065868947808
-0.030002345069417 0.064494531364149 0.085982516403602
0.029794953827926 0.064567643046666 0.085789093666273
0.031041703561610 0.064289180577201 0.086955605784093
0.032224825822526 0.063892071847292 0.088115197910320
-0.030839587866027 0.067034197426647 0.087456721869171
-0.029372210868834 0.067272755441670 0.086519594505000
0.029150685070516 0.067289383828909 0.086370144091362
0.030682915550960 0.067024073895307 0.087326081607572
0.032229667203489 0.066684245148299 0.088120475984327
-0.030368847499224 0.067850678602421 0.087959254742584
-0.028898441573351 0.067851972575079 0.086590951545432
0.028993817020200 0.067864508692377 0.086715734486663
0.030134547729216 0.067849313630831 0.087716447599266
-0.028779420560830 -0.055053513272943 0.089694764169857
-0.026552963044465 -0.055725782478879 0.089399711624178
-0.024549957839025 -0.056064416513442 0.089042041506656
-0.021868805782635 -0.056124418373955 0.089362721655657
-0.019332965402016 -0.056110129355248 0.089539025709729
-0.016710863957475 -0.056114398377351 0.089489268116809
-0.015508203821473 -0.056062335971445 0.090083352905513
-0.011889063484050 -0.056099600340164 0.089655182272239
-0.009464605362409 -0.056194429708349 0.088569110491922
-0.006833352762517 -0.056136202015182 0.089236103890119
-0.004981058619750 -0.056133055917398 0.089272190801859
-0.002395460150126 -0.056189545005485 0.088628659488378
0.000619150339727 -0.056193899089339 0.088595890824083
0.002127411357817 -0.056168751838927 0.088889533084938
0.004727944127621 -0.056134688831372 0.089290359972851
0.006974304165308 -0.056167528051660 0.088914052985175
0.009915242913094 -0.056134253347834 0.089277106912317
0.012145689967280 -0.056138040671229 0.089228474613150
0.013821112424323 -0.056113404356371 0.089515040571400
0.017206779170352 -0.056108718587810 0.089583791864431
0.019004746528283 -0.056134192226867 0.089291858820667
0.021458054956345 -0.056115010416206 0.089507966044241
0.024266010570729 -0.056088708888011 0.089054917149489
0.026245002662867 -0.055796728753824 0.089364879192087
0.028521700132942 -0.055110849588907 0.089538378786978
0.029948927036025 -0.054718538543296 0.090294162037811
-0.032791704381115 -0.052380365760097 0.090423617006560
-0.031303361336032 -0.053141927483041 0.089460169944012
-0.029711867382122 -0.054094830395658 0.088726562027207
0.029365486098612 -0.054325058424915 0.088714892393883
0.031146200170542 -0.053192697287449 0.089277814704608
0.032491122607947 -0.052538985844063 0.090178010833756
-0.033188736937634 -0.050757673342230 0.089855129376432
-0.032082375137301 -0.051156595486040 0.088754345677001
0.031883818093523 -0.051339413025058 0.088554212499122
0.032976623397349 -0.050810642507851 0.089590282958785
-0.033370504903155 -0.048528576873630 0.089384421056010
-0.032386828590726 -0.049019480587634 0.088391033678117
0.032162035134911 -0.049326537619616 0.088209084852718
0.033245348463649 -0.048525526257838 0.089239479266751
-0.035433283543600 -0.045573025432680 0.089818162882819
-0.034244992899087 -0.046579136629464 0.089089350858155
0.034050604576570 -0.046754555303281 0.088967786237917
0.035163908931023 -0.045836274076153 0.089696427159212
-0.035851098510138 -0.043702857513833 0.089283890228095
-0.033558112372553 -0.043198122825926 0.089400541204283
-0.032213987984373 -0.043513887619786 0.088437714610202
0.032022670551122 -0.043352100590283 0.088347764678480
0.033339530536626 -0.043227695675508 0.089324201999202
0.035770338490152 -0.043736331339421 0.089208506187012
-0.035856452990915 -0.041206118456835 0.089533440026622
-0.033852666749058 -0.041356035468902 0.089379567623569
-0.032348630982517 -0.042240487251360 0.088483867210676
0.032093334093358 -0.042424437284611 0.088345647205313
0.033528259503074 -0.041530973260247 0.089244920920131
0.035593390001826 -0.041075059526786 0.089606979488435
0.037025271600099 -0.042088837777627 0.090535202673050
-0.035607857939549 -0.040164740733208 0.090513636041159
-0.033563439584323 -0.039051268636371 0.089537640097052
-0.032408099942657 -0.039544964330935 0.088359935202856
0.033332335359627 -0.039104656076613 0.089301252179824
0.035676540549881 -0.040160612727552 0.090515699724584
-0.033483605133466 -0.036379040061560 0.089444776688382
-0.032476524220246 -0.036719598897853 0.088349179670183
0.033404463245783 -0.036525146842059 0.089361883766857
-0.033406900330782 -0.033950120383582 0.089332538671430
-0.032492127731097 -0.034246858225057 0.088302963998857
0.033181364377260 -0.033930024777532 0.089075077938002
-0.033801948632941 -0.031872672688461 0.089336852314227
0.033793031961924 -0.031751182768440 0.089246183108523
0.034788933016505 -0.031074302238187 0.090532983256025
-0.035374567925508 -0.028888671110580 0.089890308317309
-0.034483374900637 -0.029987319806029 0.089211943508304
0.034294081818475 -0.029904699255380 0.088725223784979
0.035078771438161 -0.029309241199949 0.089744274688995
-0.036154574819715 -0.026936195382305 0.089398501376366
0.036054299605568 -0.027032875221735 0.089299397341092
-0.037810497890141 -0.023980983458824 0.089547511072506
-0.037065388472073 -0.025240356591858 0.089518145703578
0.036849761807290 -0.025459113635180 0.088964404324288
0.037517561309341 -0.024493092181011 0.089718203149492
-0.038521195603450 -0.022820382568561 0.089871841747948
0.038715775546113 -0.022512835573108 0.089854907205454
-0.040608022200609 -0.019051202313062 0.089428604936430
-0.039676354863579 -0.020735279343090 0.089671383502165
0.040041526632017 -0.020015876394108 0.089513299317464
-0.041321726299383 -0.017428215666347 0.089151112605159
0.041366352000180 -0.017258559447468 0.089399047554631
-0.042635176786162 -0.014152470570170 0.089230017724583
-0.042157796595680 -0.015385164367778 0.089372343933342
0.042318795396085 -0.014909572202271 0.089640782330601
-0.043128360654182 -0.012444441959009 0.089228651477929
0.042992872046888 -0.012919901678007 0.089333827532830
-0.043732717472853 -0.010260990851504 0.089066694656889
0.043595660544272 -0.010718293713841 0.089355591067699
-0.044231704641281 -0.007875791943887 0.089656243315692
0.044111275010882 -0.008611302174413 0.089969868217887
0.044279913553689 -0.007502114561968 0.089580251173107
-0.044728838879757 -0.004645088767377 0.089875041340073
-0.044492107247031 -0.006189706022684 0.089636932069154
0.044558886884627 -0.005709588525426 0.090069556962624
-0.044851920617292 -0.003077394461158 0.089500225815545
0.044883534121837 -0.002507743138307 0.088849108446369
-0.044951278491322 -0.000921197634069 0.089289876806111
0.044965567300413 -0.000459188253229 0.090220673336032
-0.044905538424105 0.002075078904387 0.089127564604582
0.044908635976040 0.002164085292964 0.089626882831270
-0.044801065030646 0.004106464472747 0.089183800707979
0.044784970727689 0.004480737014950 0.089439791231234
-0.044620689714972 0.005633607605270 0.089039257866574
-0.044434799164053 0.006822379745386 0.088889601024089
0.044514945012567 0.006523210456247 0.089694227101329
-0.044059496245944 0.009239033956245 0.089200307770973
0.043952396924651 0.009675364428532 0.089442691004425
0.044219561601774 0.008353362731889 0.089480305738085
-0.043469016143743 0.011464797591520 0.089430796247324
0.043440269479641 0.011561877021393 0.088997718604623
-0.042697156046267 0.014182172447578 0.088814118849536
0.042828304003943 0.013784106272192 0.089533444330015
-0.041899778340078 0.016259656767620 0.089386017583384
0.041578729494001 0.017093323899082 0.089545891561728
0.041977874475468 0.016115841807417 0.090108610557015
-0.041015324360929 0.018431270492386 0.089661225148180
0.041184211393171 0.018026634277236 0.089841472994047
-0.040019163044124 0.020433622846414 0.088715125395077
-0.039363240724264 0.021635857828938 0.089408643231037
0.039667183067315 0.021045882551971 0.089717205804748
-0.038256168964048 0.023619364269404 0.089871330078692
0.038180366468997 0.023703608259363 0.089759631679652
-0.037569254762140 0.024776132918671 0.089815951610794
-0.036797664478361 0.026058116638878 0.089402221649196
0.036489162083038 0.026444681239988 0.089170026222085
0.037322772201282 0.025138138541362 0.089675357830303
-0.035727466164012 0.028062732256843 0.089310014699599
-0.034846621314893 0.029132283866535 0.088556166206746
0.035615841729127 0.028252765798706 0.089225078529029
-0.035192710820930 0.029813861905819 0.090152975712313
-0.034258065231291 0.030847699253277 0.089208171695205
0.034119839087498 0.030985263844735 0.089055200420036
0.034869035569805 0.030298942309906 0.089969493759797
-0.033540517355748 0.032811856776697 0.089261668062991
-0.032437219583898 0.034186124858003 0.088258415474830
0.033587522145395 0.032822055495608 0.089300374590270
-0.033360804006677 0.035574150251465 0.089345921982180
-0.032508065716200 0.034733969998383 0.088396299564215
0.033352067284440 0.035294347522288 0.089309262058656
-0.033560646870779 0.037699784942797 0.089563566309120
-0.032503904856673 0.038693506942088 0.088381588548307
0.033377483735442 0.038207864766576 0.089338725586737
-0.033568678928373 0.039827398565902 0.089567121662412
-0.032507549657125 0.039967035376939 0.088382418678932
0.033364272437020 0.040177096548216 0.089323420764828
-0.033712942326224 0.042480077870970 0.089721392622606
-0.032403116603523 0.042781069430752 0.088278606284264
0.033249714306253 0.042812858695607 0.089220237826907
-0.033856189208916 0.045136415856227 0.089875965082032
-0.032337480232378 0.044431132163743 0.088223194760028
0.033377145382201 0.045227679455968 0.089356265068042
-0.033384406065348 0.047783116843807 0.090050124960063
-0.031699836753438 0.048474127978713 0.089390241693364
0.031508018675855 0.048398287214506 0.089152408441597
0.032882846498932 0.047666788705365 0.089226252755695
-0.033235225557895 0.049883078311529 0.090148686244835
-0.031500943719815 0.049735062866360 0.089161513008247
0.031290661373955 0.049741932802386 0.088939968357772
0.033085932449963 0.049710711402416 0.089995762987850
-0.033361426279437 0.051946520977625 0.090014369287807
-0.031594235136162 0.052034138438312 0.089269096725808
0.031258031020742 0.052159779026072 0.088958885216987
0.032941225191861 0.052222832377635 0.089766518195731
-0.033100573828573 0.054827239375922 0.089586640064369
-0.031623270029851 0.054504060022797 0.089290955472340
0.031362218820811 0.054592969252014 0.089077387041727
0.032842736273422 0.054585404249590 0.089829434204092
-0.033262069260974 0.057408644056568 0.089755016199744
-0.031696665618070 0.057150235632494 0.089073316753730
-0.029414203166899 0.057050701257161 0.089162585268532
-0.026379829038072 0.057047923253124 0.089480106552033
-0.024061245346260 0.057047537668665 0.089456449440207
-0.021971794501723 0.057047073845335 0.089206296414349
-0.018685205076571 0.057047075570754 0.089577268076656
-0.016869839003322 0.057047772673186 0.089242877509246
-0.014480198391558 0.057047397853463 0.089511098532275
-0.012202729255815 0.057050146517998 0.089552710804451
-0.010120519783165 0.057055715426080 0.089227782077610
-0.006377276025821 0.057055525568928 0.088801731642359
-0.005223704658506 0.057061251287630 0.089349343291302
-0.002996604059100 0.057059750844420 0.089575139780524
0.000017820186306 0.057065243972595 0.088867370514134
0.002047994643387 0.057068307115210 0.089384808216369
0.004968650391915 0.057068753268272 0.089061723379526
0.007266960523559 0.057064851931245 0.089130018802617
0.009089056333540 0.057069175092619 0.089371107065581
0.011992158911389 0.057060667001149 0.089449166630208
0.014053193682314 0.057066081384693 0.089083778108268
0.016161855479351 0.057085063800816 0.090128573525228
0.018578108047599 0.057075037050025 0.089318126677329
0.021463067036544 0.057070266226271 0.089643292711924
0.023298933095364 0.057069266339403 0.089244083161929
0.026303021674888 0.057083883383357 0.089848743235212
0.028868953983957 0.057060488728427 0.088896098822546
0.031503423733475 0.057196139170754 0.088829224785056
0.033043540880148 0.057365026336606 0.089610506393009
-0.033245034172509 0.058601845711131 0.089736819943779
-0.032022512809051 0.058667051621915 0.088713756403371
0.031843621735143 0.058662285797793 0.088607216348890
0.033131148844700 0.058617048496718 0.089606820751110
-0.033542111833420 0.061739177847229 0.089528839209508
-0.032442978600657 0.061967531281953 0.088337010849978
0.033406830170985 0.061890975055744 0.089387721811299
-0.033573679705640 0.064203755136671 0.089564769655664
-0.032431663369012 0.064763305170358 0.088326262450247
0.033299456904270 0.064236538943312 0.089272770765255
-0.033195473325990 0.067008515866872 0.089846868971282
-0.031835341428818 0.067312804472158 0.088920306544577
0.031608019107218 0.067260851305264 0.088738470496255
0.033000895322493 0.067053184453987 0.089767165150240
-0.032754226222366 0.067840003557065 0.090320438863366
-0.031609724452485 0.067857839931610 0.089198631642554
0.031324386929059 0.067878350349875 0.088999031379116
0.032505170821848 0.067846814050505 0.090144044115629
-0.030819871762670 -0.054866148746739 0.092180496267622
-0.029033113742348 -0.055425020933643 0.091738434088474
-0.026832179775584 -0.055856366731829 0.091446152214421
-0.024292000983843 -0.055921434348550 0.091685998424320
-0.021948381587435 -0.055885377912398 0.092101677724621
-0.018941934995887 -0.055912462282068 0.091799780583764
-0.016959910511619 -0.055896647875338 0.091983005278714
-0.014891254086795 -0.055939691373229 0.091487131471976
-0.012470676555922 -0.055938833014737 0.091496535564191
-0.010200653203854 -0.055973924381300 0.091094676496819
-0.008385350147222 -0.055893476743091 0.092016145775701
-0.004773968519598 -0.055930059056635 0.091597248087487
-0.002224199604275 -0.055906113527048 0.091871583873439
-0.000239681494904 -0.055919488606067 0.091718447060618
0.002258536528554 -0.055932332340666 0.091573452109310
0.004907088992874 -0.055878299685364 0.092200338684095
0.007061650563184 -0.056002214939432 0.090805658114915
0.009647020218826 -0.055914789238933 0.091799019855448
0.012914850948325 -0.055913477350169 0.091794160423736
0.014372459917589 -0.055913762812186 0.091797811137250
0.017106425010919 -0.055935277319988 0.091563569629679
0.019233047756452 -0.055917679291542 0.091763083536768
0.021332542872092 -0.055912279561228 0.091822718224418
0.024075408485052 -0.055921592206614 0.091720187455584
0.026530752785826 -0.055877357645837 0.091550399988188
0.028610184616984 -0.055534788061155 0.091739361059980
0.030702305739839 -0.054896401708238 0.092118185219416
-0.033386018387923 -0.052989491269448 0.092070691157594
-0.031889350470151 -0.054106767663582 0.091791031040719
0.031675778172795 -0.054171907816575 0.091630690350742
0.033181894964392 -0.053068753229872 0.091883567806332
0.034617146108577 -0.052278269646264 0.092952826006972
-0.035243040056743 -0.050702680422224 0.092571093607553
-0.034258872760207 -0.051356742321685 0.091605325251704
0.034062612253162 -0.051440937128723 0.091381715942452
0.034990446675500 -0.050951550910622 0.092382182307625
-0.035490459450148 -0.048479488961261 0.092162782259277
-0.034644352237838 -0.048580751860548 0.091049456286092
0.034436531552514 -0.048510813979533 0.090780274977526
0.035338662774322 -0.048343985749363 0.091949973455876
-0.035989100756408 -0.046184342686417 0.091805405032050
-0.034829865305235 -0.047107865858733 0.090854532348857
0.034611954345749 -0.047256604580433 0.090631742424755
0.036011390773512 -0.046107252289061 0.091726125727713
0.037112209118372 -0.045131015739856 0.092647218129493
-0.037882203487177 -0.043422019275709 0.092191100825247
-0.036829566209561 -0.043960164579445 0.091278953529433
-0.034620359653472 -0.042786799526101 0.090999818501347
0.034349548258230 -0.042902833380651 0.090820199032856
0.035846103457928 -0.043517438067336 0.091093102239142
0.037656553399559 -0.043665068461471 0.092003928879662
-0.038004762190661 -0.041446397564849 0.091912546053644
-0.035884855485906 -0.041224146081328 0.091835656081347
-0.034636506339462 -0.041445458576841 0.091035860742330
0.034386281985988 -0.041503905200132 0.090841312830295
0.035602256685040 -0.041312112824220 0.091858462088441
0.037936060629851 -0.041656866360661 0.091825009387133
-0.038013609439731 -0.039690590998908 0.092301791522069
-0.036367595613087 -0.039750147981047 0.091802285301062
-0.034684424881526 -0.039524601823991 0.090857256237682
0.034492397661682 -0.039993936553586 0.090627732661388
0.036279266411418 -0.039757124180445 0.091767404142867
0.037766962203507 -0.039698659776049 0.092148770695455
-0.035865325934607 -0.036369451359499 0.092324193613716
-0.034638971883590 -0.036199489259564 0.090758139582223
0.034531414437843 -0.036903549872048 0.090636672558517
0.035542132989159 -0.036662133386582 0.091906627124538
-0.035671388566570 -0.034058296504679 0.092069771486959
-0.034840904662610 -0.034192802969182 0.090991837539408
0.034533131861047 -0.034878971606061 0.090643178959735
0.035576970026864 -0.034243234195732 0.091940592045083
-0.035443620330826 -0.031509314290993 0.091655936853943
-0.034817274424719 -0.031570560161254 0.090764192734290
0.034577482086033 -0.032426112853423 0.090710871992502
0.035412438385860 -0.031531020721483 0.091632728050854
-0.035899432808779 -0.029483469994015 0.091683587284633
0.035956754103343 -0.029238575391124 0.091593052240815
-0.037427733567205 -0.025959550726462 0.092552577505004
-0.036793370158857 -0.027022097866233 0.091759083871169
0.036607881530214 -0.027295608347247 0.091557027771331
0.037216314669907 -0.026354589084158 0.092302665933381
-0.037964664655845 -0.024507500928928 0.091762338590580
-0.037290801506461 -0.025486403859740 0.091132727002876
0.037821765614576 -0.024673247936232 0.091602307358771
-0.039001871131149 -0.022236313989164 0.091762015136324
0.038851928125026 -0.022529693486693 0.091636250091451
0.039519526089357 -0.021270618202781 0.092553189577991
-0.040223332410217 -0.019762418436847 0.092246577658924
-0.039610651542525 -0.020847694855070 0.092062409359065
0.040054703195022 -0.020031410810394 0.091982311795810
-0.041244939346469 -0.017591282635383 0.091809934426694
0.041322313063300 -0.017346307600287 0.091847798914323
-0.042490549820346 -0.014541054919382 0.091901122946255
-0.041988509628770 -0.015781449166584 0.091622264503785
0.042365884854224 -0.014778818348033 0.091902803474038
-0.042958026890989 -0.013052774302501 0.091751495398223
0.042926548033314 -0.013149156200736 0.091734307037504
-0.043823726119218 -0.009913305843684 0.091509926840376
0.043704621955419 -0.010307768530562 0.091832077283083
-0.044216091502473 -0.007967836890377 0.092213445179019
0.044110711720687 -0.008609919997712 0.091409342504052
0.044272543633372 -0.007545910114314 0.091953752473403
-0.044714389624350 -0.004734250083644 0.090816628607392
-0.044490319857498 -0.006187518111945 0.092223262272830
0.044601134534003 -0.005440240559436 0.091683888304240
-0.044851255962876 -0.003098149267335 0.091325453687920
0.044870274826771 -0.002783027521524 0.092069964458383
-0.044986601977308 0.000496177185069 0.091962531232819
0.044975074943110 -0.000220070577795 0.091691201271946
-0.044937390978358 0.001416827772640 0.092511625352297
0.044934580083077 0.001550518622734 0.091914098713597
-0.044826772758511 0.003797098116887 0.091646924518829
0.044789802566339 0.004208977272727 0.091906948942043
-0.044610731820832 0.005691519193539 0.090816705931049
-0.044451603301533 0.006708025365946 0.092043176595464
0.044531873169020 0.006389812652528 0.091342068394761
-0.044172475760285 0.008507332486520 0.091379475627642
0.044111006834760 0.008958647516193 0.092250792618080
0.044258959836577 0.008091094799782 0.091480849728599
-0.043446192921923 0.011536674783581 0.092217702643586
0.043614101333708 0.010922540530098 0.091497986908021
-0.042866361354442 0.013603940138971 0.091659796873423
0.042841166159540 0.013716152668134 0.092325882216446
-0.042309725722687 0.015222523440533 0.092133862449017
-0.041757263266001 0.016600668782122 0.091528058781064
0.041640223861285 0.016923661845869 0.091760105147623
0.041988084829217 0.016081099980594 0.091209557399615
-0.040856570303539 0.018750581699682 0.091955798348768
0.040681116966770 0.019169279796106 0.091609562183268
-0.039961019555237 0.020554561520866 0.091733658748335
-0.039472808390992 0.021554565275472 0.092244754739074
0.039232535959324 0.022048131782912 0.091985642533206
0.039823261728154 0.020838170979861 0.092048602040908
-0.038607035030709 0.023477192346493 0.091860854088550
0.038592543600153 0.023527195405910 0.091842629212430
-0.037754670373152 0.025316906286392 0.091986353920805
-0.037099366477476 0.026417610872058 0.091538297850967
0.036857589964591 0.026750860598987 0.091258183660910
0.037555845990312 0.025728235087936 0.091983966504049
-0.036510144277876 0.028142184800260 0.091811024228506
0.036294151989668 0.028372080880703 0.091543619763547
0.037240096425680 0.027096074388738 0.092802719565703
-0.035665672067518 0.030477883939155 0.091566429432325
-0.034899735877918 0.031583098773989 0.090828721437992
0.035591383114146 0.030584476243740 0.091521741749949
-0.035811933500586 0.032830681465268 0.092247763515675
-0.034735122706509 0.032036392024373 0.090811965991207
0.034566272195712 0.033039075476660 0.090672970405009
0.035187554111625 0.032795606657135 0.091418055648725
-0.035715988074608 0.035620545804637 0.092127042144168
-0.034750972671774 0.035402055681676 0.090897955048099
0.035282335724102 0.035311749734914 0.091551503113209
-0.035740832602543 0.037655747643330 0.092166124393095
-0.034735828191539 0.037748066727299 0.090875087327688
0.034593806330360 0.037700855274366 0.090709437645008
0.035235291112971 0.037824866287505 0.091483222299452
-0.035241312591538 0.039650076176634 0.091496667410896
-0.034768368176072 0.040198434051441 0.090905175885734
0.034537550955638 0.039276879127048 0.090642702234694
0.035744741379954 0.040260973850585 0.092181749502507
-0.035683710507273 0.042638702890441 0.092116067150382
-0.034474179721130 0.043787946391530 0.090567699947585
0.034529535997627 0.042328388522528 0.090627658358399
0.035608536666991 0.042737856115607 0.092012954535098
-0.035686978331860 0.045290114812944 0.092137327660204
-0.034774284684944 0.044436291156221 0.090912620382692
0.035375014030901 0.045116623708719 0.091711440629389
-0.035696242523711 0.047401598885614 0.092163300329129
-0.034126453284450 0.048068653588224 0.091410735342115
0.033883385012479 0.048216997418273 0.091642854091762
0.035391366688842 0.046875915405599 0.091745046182118
-0.035674734275491 0.049986653050443 0.092150512984401
-0.033856349630180 0.049804715348259 0.091802589144198
0.033614648210676 0.049667610388787 0.091536908269207
0.035195620902734 0.050148493540532 0.092012626672078
-0.035666839274287 0.052072059363438 0.092153031244442
-0.033784931932566 0.052198221329685 0.091712829587331
0.033802331698712 0.052142096965724 0.091684609089037
0.035052540643450 0.052451053681517 0.092298105856058
-0.035934632186091 0.054478577539554 0.092531758367946
-0.033680166834107 0.054501753336182 0.091582267203334
0.033802497902213 0.054441959951837 0.091712146232176
0.035311735485418 0.054430173991483 0.092061950682995
-0.035538089437412 0.057475381968227 0.092288649465088
-0.034056867301700 0.057193076075829 0.091575503137185
-0.031558266753071 0.057055139788463 0.091528308388824
-0.029027138466793 0.057050210445118 0.092285808736977
-0.026350080323549 0.057047143506120 0.092120553918723
-0.024215657927899 0.057049183546137 0.091829071390702
-0.020983128850820 0.057048934143517 0.091657284989598
-0.018765482616512 0.057048652372532 0.092050805955645
-0.017460914423933 0.057047467288116 0.091878837466464
-0.014446129446463 0.057047077342669 0.091883072715238
-0.012460656425402 0.057047077878912 0.091540991442702
-0.009762405867677 0.057047078509211 0.092255717251899
-0.007428610521560 0.057047079554793 0.091514453202768
-0.005113961923934 0.057048274528215 0.091775813061199
-0.002676622095551 0.057050997240853 0.091895006597859
0.000246142384295 0.057047538330091 0.091571191297415
0.002557598889401 0.057066247533013 0.091721484356275
0.004616459201456 0.057063060108008 0.091675107015054
0.007116935829287 0.057071276111833 0.091983384491074
0.008740825880435 0.057070073804002 0.091641029787237
0.012031242672012 0.057074737974711 0.091795555746139
0.014337885756009 0.057057043102179 0.091870237194305
0.015911838885343 0.057062368819037 0.091789692467183
0.019648644200066 0.057071003217787 0.092424765490500
0.021472823002322 0.057071957423068 0.092078160808784
0.023585979048906 0.057080098879889 0.091974390349585
0.025864947367999 0.057074717838440 0.091695775503655
0.028254953569677 0.057084974369596 0.091948077958318
0.030873532997348 0.057093075078315 0.091561073121283
0.033980474082543 0.057227961701877 0.091406049123444
0.035290661726500 0.057402683358195 0.092070244867263
-0.035443201945778 0.058601154799127 0.092278664030786
-0.034367051454853 0.058659315508248 0.091337021409574
0.034144612593386 0.058655136999116 0.091107417273181
0.035286715666324 0.058628925869044 0.092216673533374
-0.035612719347134 0.061916074109763 0.092011076979796
-0.034764635944905 0.062221075787256 0.090953090344149
0.034530133948578 0.062044729968947 0.090672943881279
0.035424789987900 0.061971926557157 0.091789119722219
-0.035598888796447 0.064338544936606 0.091992469036931
-0.034655366689529 0.064100242005735 0.090824943329073
0.034530843424125 0.064210551260462 0.090673614970408
0.035359273492890 0.064292150910484 0.091707459050734
-0.035427211988615 0.066969863547724 0.092370238825748
-0.034199342958159 0.067216042034098 0.091475223182924
0.034018934748615 0.067262987912425 0.091348283474637
0.035168616612832 0.067027019938653 0.092224591870035
-0.033880441624302 0.067858100060174 0.091724103080151
0.033660257129152 0.067871636914358 0.091548940648412
0.034730177676891 0.067853999259615 0.092819917595370
-0.032684847915329 -0.054649351239220 0.094960593733764
-0.031671263689392 -0.055009411176833 0.094584457787745
-0.029164498069596 -0.055577065814176 0.094152745930447
-0.027208262935507 -0.055718854838316 0.093978251318201
-0.023835206748139 -0.055707461854376 0.094140408399032
-0.022327494914299 -0.055671051052270 0.094552105938076
-0.018775501681123 -0.055700246254902 0.094224503592755
-0.017700001294071 -0.055700220784746 0.094231288566263
-0.014926423689896 -0.055733642930518 0.093846664257499
-0.011147513749482 -0.055695892439245 0.094279125202591
-0.010090367102669 -0.055737479655836 0.093802830573017
-0.006956455069868 -0.055795843784740 0.093134438405763
-0.004924841485518 -0.055722671384600 0.093972585933190
-0.002748875748832 -0.055678945458298 0.094473468481519
0.001543319016591 -0.055699256711432 0.094240952893020
0.004604373199418 -0.055701832290428 0.094211540190468
0.007181961128889 -0.055691678149212 0.094333401994330
0.009751797765499 -0.055661098340302 0.094691434445166
0.011628603477965 -0.055684488410436 0.094427521218412
0.013248642752474 -0.055669863179652 0.094586515586552
0.016979310281963 -0.055696250201359 0.094293055171939
0.019545948283120 -0.055669020511358 0.094600338571837
0.021168216220322 -0.055699641105027 0.094252522496760
0.023317416374172 -0.055706254128552 0.094185876869778
0.026721908269192 -0.055731463448138 0.093873400773760
0.028893739510084 -0.055631534604913 0.093939165654560
0.031258381732003 -0.055105941879989 0.094282407907928
0.032515829420211 -0.054733301662182 0.094932942889603
-0.034992457105404 -0.052191178102482 0.093637238692513
-0.033848980856189 -0.053494330402514 0.094385625660311
-0.032312988146787 -0.054430175352707 0.093286968586458
0.032104773562045 -0.054517681546238 0.093203433139920
0.033763829612890 -0.053592550944129 0.094394090399208
0.034790535444014 -0.052424428736286 0.093762803919545
-0.035564187091923 -0.051468982175835 0.094062829421176
-0.034652610273704 -0.051849917601228 0.094497532362208
0.034120197985355 -0.051710136324307 0.094998163190305
0.035473493072403 -0.051524099140335 0.094048150996185
0.037124499669835 -0.050124078970391 0.095204686034824
-0.037505287976497 -0.048197910409603 0.095084979246049
-0.036731092678191 -0.048610012878414 0.093958925786602
0.036557265984677 -0.048668375048053 0.093700553577085
0.037334712816887 -0.048421057992046 0.094883960491004
-0.037668429032741 -0.045725739548947 0.094727215753613
-0.036937802172298 -0.046314712841914 0.093753887526442
0.036669648716078 -0.046493813749642 0.093454228179296
0.037485340983622 -0.045815245376371 0.094383234205982
-0.039821765659478 -0.042637559137985 0.095317477865349
-0.038601269183589 -0.043833680722548 0.094169229385854
0.038478510962180 -0.044003727790726 0.094118236479047
0.039550887719992 -0.042862762224907 0.094981417912673
-0.040019589354897 -0.041145263667072 0.094957619338887
-0.038530145633880 -0.041226522694015 0.094297764833547
-0.036694720000768 -0.041120453436654 0.093671758851327
0.036561855178697 -0.041103970616928 0.093495153083808
0.037937464031614 -0.041200961525654 0.094260666398506
0.039809116498271 -0.041281997624504 0.094677456725557
-0.040002760178553 -0.039034077176087 0.095063122478001
-0.038386808242739 -0.039049098496255 0.094362091323482
-0.036987919625922 -0.039770764835432 0.093849946328722
0.036760196020700 -0.039924558539917 0.093630707412104
0.038010366252614 -0.039196072215966 0.094249878949823
0.039772739149872 -0.038962884788107 0.094776486825225
-0.037639570504337 -0.036758083147532 0.094875436577661
-0.036736823958125 -0.036655292579548 0.093559030137825
0.036736774265786 -0.036636522065842 0.093540026769967
0.037433949032593 -0.036832495927838 0.094560624357564
-0.037726391895732 -0.034080720446323 0.094993558195685
-0.036749618474104 -0.033895137883344 0.093604376357438
0.036617529211965 -0.034328917086706 0.093389931534637
0.037459670775045 -0.033671192377745 0.094599251542083
-0.037769784481888 -0.031425617793992 0.095050025096795
-0.036901745889953 -0.031608919264478 0.093817529112846
0.036729225426409 -0.031737910998028 0.093551241968128
0.037520954948185 -0.031913514093776 0.094686080078556
-0.037660068001637 -0.028897817097720 0.094831141852758
-0.036923298148359 -0.029244667987178 0.093588627173973
0.036746687825276 -0.029563129226446 0.093378173344515
0.037530884678304 -0.029323278362657 0.094624394579164
-0.037901279936804 -0.026965386015592 0.094296537192751
-0.037214046116116 -0.027670521068088 0.093306449990627
0.037837900597969 -0.026942279487200 0.094124964479423
-0.038487841687934 -0.024710411354653 0.094095988120499
0.038558504015714 -0.024547580312458 0.094174244387848
-0.039906425969934 -0.021321252814919 0.094924457220051
-0.039307412291551 -0.022377071892899 0.093932557015432
0.039210705684335 -0.022598531844959 0.093871924708586
